ncols        34
nrows        25
xllcorner    1387885.413996938849
yllcorner    5145017.460808033124
cellsize     50.000000000000
 14.161953999999999709 19.130293000000001769 19.562806999999999391 23.20223800000000125 23.918707000000001273 24.70018400000000014 24.70343599999999995 25.35315299999999894 25.144451000000000107 28.913344999999999629 30.257276999999998424 31.553101999999999094 31.603549999999998477 32.592548000000000741 33.416080000000000894 34.722133999999996945 34.760586000000003537 34.523014000000003421 33.79558200000000312 33.37885299999999944 33.45781300000000158 34.294823000000000945 36.886634999999998286 39.159309000000000367 40.512478000000001543 40.998038999999998566 41.760474999999999568 39.053119999999999834 35.189194000000000528 34.408478000000002339 32.319912000000002195 32.625084000000001083 34.681308999999998832 35.677985999999997091
 18.004605999999999 24.954042000000001167 25.029737000000000791 25.231294999999999362 25.322386000000001616 26.140131000000000228 26.291145000000000209 26.655096000000000345 27.380002999999998536 30.12653399999999948 30.559602999999999184 30.00862499999999855 30.514762999999998527 32.638927000000002465 33.56135900000000305 34.53056699999999779 34.720165000000001498 34.446387999999998897 33.975647000000002151 33.554695000000002381 34.26804400000000328 35.316509000000003482 37.215862000000001331 38.728991999999998086 40.385437000000003138 41.504466999999998222 41.221085000000002196 38.226475000000000648 35.157294999999997742 34.779784999999996842 33.85213900000000109 34.736938000000002091 35.877704999999998847 35.829487000000000307
 27.983491999999998256 27.720227999999998758 28.176449000000001632 28.376397999999998234 28.457084999999999297 28.523400999999999783 27.511863999999999209 27.640387000000000484 28.276230000000001752 30.536549000000000831 30.773372999999999422 29.638324999999998255 29.953205000000000524 32.201720999999999151 33.481098000000002912 34.47386900000000054 34.634112999999999261 34.82860600000000062 34.229453999999996938 34.067574000000000467 35.035164000000001749 36.151718000000002462 37.21465700000000254 37.687992000000001269 39.049399999999998556 39.387099999999996669 36.414627000000002965 36.734408999999999423 35.221657000000000437 34.957737000000001615 34.391627999999997201 35.612018999999996538 36.508429999999997051 36.019736999999999227
 29.425940000000000651 29.216266999999998433 29.407917000000001195 29.664812000000001291 30.198170000000001068 29.732941000000000287 29.713878999999998598 29.750021000000000271 30.062613999999999947 31.382248000000000587 31.339473999999999165 30.16013500000000036 29.573477000000000459 29.783854000000001605 32.190005999999996789 34.010998000000000729 34.541888999999997623 34.879424999999997681 34.307220000000000937 33.877879999999997551 34.394505000000002326 36.056564000000001613 36.644409000000003118 37.059772000000002379 37.622275999999999385 36.91467699999999752 33.889774000000002729 33.455029000000003236 34.598804000000001224 34.541556999999997402 34.980826999999997895 36.321151999999997884 37.110255999999999688 36.735081000000000984
 31.574687999999998311 31.639974999999999739 32.014609999999997569 32.503726999999997815 32.837012999999998897 31.008351999999998583 30.938580999999999221 30.895050000000001234 31.124705999999999761 31.735520999999998537 31.546434000000001419 30.655633999999999162 29.837537999999998561 28.330860000000001264 31.243812999999999391 33.568309999999996762 34.10401499999999686 34.835391999999998802 34.289515999999998996 32.824623000000002548 32.28996999999999673 32.150050999999997714 32.96768600000000049 34.643543000000001086 34.921950999999999965 34.872253000000000611 32.88060000000000116 32.840941999999998302 34.155804000000003384 34.22993900000000167 35.310478000000003362 36.491821000000001618 37.299168000000001655 36.970199999999998397
 32.929436000000002593 33.063594999999999402 33.312206000000003314 33.717044999999998822 33.968409999999998661 33.205821999999997729 32.587135000000003515 32.118008000000003221 32.03640699999999697 32.296551000000000897 32.181674999999998477 31.479851000000000028 31.293542999999999665 28.19756100000000032 30.306280000000000996 33.059871999999998593 33.808483000000002505 34.593220000000002301 33.904345999999996764 31.969409999999999883 31.220085000000000974 30.903497999999999024 31.597404000000000934 33.583809000000002243 34.686802000000000135 35.344917000000002361 34.801102000000000203 34.591652000000003397 34.243991999999998654 34.530009999999997206 36.627654999999997187 37.161633000000001914 37.472358999999997309 37.090266999999997211
 35.229152999999996609 35.790709999999997137 36.079346000000001027 34.827579000000000065 34.565842000000003509 33.73284100000000052 32.467213000000000989 32.110973000000001321 31.944030999999998954 32.460673999999997363 32.54956099999999708 32.196457000000002324 32.098759000000001151 29.080619999999999692 29.428398000000001389 31.961880000000000734 33.395156999999997538 33.517586000000001434 32.599505999999998096 30.625502000000000891 29.813134999999999053 29.435746999999999218 30.404827000000000936 32.502215999999997109 34.380065999999999349 36.246948000000003276 35.647643999999999664 35.338295000000002233 35.014201999999997383 35.51633499999999799 37.390030000000002985 37.580390999999998769 37.449519999999999698 36.968932999999999822
 35.649402999999999508 36.670127999999998281 37.176895000000001801 36.378197000000000116 34.603282999999997571 33.931896000000001834 32.627163000000003024 32.018200000000000216 32.029952999999999008 32.657665000000001498 33.052554999999998131 33.674683000000001698 33.505870999999999071 29.660243999999998721 29.343419999999998282 31.954398999999998665 33.316764999999996633 33.029392000000001417 31.938959000000000543 30.039578999999999809 29.104300999999999533 28.62528599999999912 30.005341999999998848 32.699356000000001643 34.229720999999997844 36.480803999999999121 36.097366000000000952 36.485714000000001533 37.02248000000000161 37.539645999999997628 38.147488000000002728 38.01413000000000153 37.213855999999999824 36.802089999999999748
 34.758609999999997342 35.151791000000002896 36.347186999999998136 35.662170000000003256 34.316727000000000203 33.738804000000001793 32.581080999999997516 32.061779000000001361 32.125084000000001083 32.672378999999999394 34.030234999999997569 34.601531999999998845 34.585738999999996679 31.518145000000000522 30.320645999999999987 32.645251999999999271 33.238754000000000133 32.421146000000000242 30.898952000000001306 29.110003999999999991 28.630724000000000729 29.386669000000001262 30.372612000000000165 33.03656000000000148 34.213099999999997181 35.750965000000000771 35.512698999999997795 36.001091000000002396 36.580761000000002525 37.482993999999997925 37.663563000000003456 37.478892999999999347 36.877952999999997985 36.688167999999997448
 33.552303000000001987 33.639580000000002258 33.193995999999998503 33.191966999999998222 33.329636000000000706 33 32.307788999999999646 32.10572400000000215 32.31812699999999694 32.683250000000001023 34.892330000000001178 35.857985999999996807 34.689762000000001763 32.782699999999998397 31.682468000000000075 33.001288999999999874 33.239516999999999314 32.275913000000002739 30.650755000000000194 28.769469999999998322 28.844916999999998808 30.553944000000001324 30.937411999999998358 32.611336000000001434 33.576492000000001781 34.320037999999996714 34.267189000000001897 34.913963000000002523 35.432456999999999425 35.276611000000002605 34.93046600000000268 34.996670000000001721 36.390811999999996829 36.505138000000002307
 32.076194999999998458 32.08434700000000106 32.079548000000002617 32.307406999999997765 32.956524000000001706 32.682853999999998962 32.029167000000001053 31.806367999999999086 32.007911999999997477 32.478782999999999959 34.932476000000001193 36.830249999999999488 36.460681999999998482 35.059440999999999633 32.92876799999999804 32.721451000000001841 32.804810000000003356 32.777163999999999078 31.121786000000000172 29.542524000000000228 29.56621200000000016 30.858561999999999159 31.091394000000001085 32.102547000000001276 32.834884999999999877 33.521408000000000982 33.518253000000001407 33.977966000000002111 34.35015099999999677 33.745212999999999681 33.399292000000002645 33.872855999999998744 34.646689999999999543 36.101944000000003143
 29.087105000000001098 29.123055999999998278 30.687121999999998678 31.446784999999998433 32.417461000000002969 32.162567000000002793 31.202341000000000548 30.503692999999998392 30.599585000000001145 31.574881000000001308 34.524517000000003009 36.117427999999996757 36.39550400000000252 35.149273000000000877 32.720646000000002118 32.182105999999997437 33.004921000000003062 33.23851799999999912 31.956727999999998246 30.56530000000000058 30.112035999999999802 30.389952000000000965 30.958369999999998612 31.987707000000000335 32.309044000000000096 32.239547999999999206 31.789324000000000581 31.272617000000000331 31.160225000000000506 31.267749999999999488 31.60966099999999912 32.951653000000000304 33.683112999999998749 35.834408000000003369
 27.579862999999999573 27.919968000000000785 30.048508000000001772 30.960591999999998336 32.079825999999997066 31.880130999999998664 30.820284000000000901 29.957266000000000616 29.981042999999999665 31.12156699999999887 33.266834000000002902 34.061489000000001681 34.618228999999999473 34.222309000000002754 32.348396000000001038 31.374473999999999307 32.575206999999998914 33.335490999999997541 32.929256000000002302 31.498877000000000237 30.524453999999998643 30.10692200000000085 30.902570999999998236 32.086212000000003286 32.280326999999999771 31.976866000000001122 31.458822000000001395 30.788396999999999792 30.556508999999998366 30.88603000000000165 31.420667999999999154 32.074623000000002548 32.350307000000000812 34.656094000000003064
 25.739460000000001116 26.051210000000001088 28.884100000000000108 30.161314000000000846 31.199222999999999928 31.147867000000001525 30.387169000000000096 29.632892999999999262 29.721415000000000362 30.883901999999999077 32.498111999999999 32.703972000000000264 33.481135999999999342 33.624907999999997799 32.364261999999996533 31.47961000000000098 32.307957000000001813 32.805222000000000548 31.729582000000000619 31.117252000000000578 30.379439999999998889 29.844715000000000771 30.97651700000000119 32.170338000000000989 32.241000999999997134 32.408290999999998405 32.708976999999997304 32.461201000000002637 32.397601999999999123 31.244454999999998535 31.744101000000000568 32.026783000000001778 32.007331999999998118 33.696277999999999508
 24.913954000000000377 27.064938000000001495 28.52199900000000099 29.855274000000001422 30.748270000000001545 30.732427999999998747 30.228093999999998687 29.677924999999998334 29.798953999999998388 30.832315000000001248 31.161439999999998918 30.32398200000000088 31.007349000000001382 32.200820999999997696 32.741424999999999557 32.18478799999999751 32.017574000000003309 31.78130000000000166 30.94849400000000017 30.221315000000000595 29.388296000000000419 29.801255999999998636 30.933195000000001329 32.183818999999999733 32.240687999999998681 32.895256000000003382 33.655106000000003519 33.792304999999998927 33.747554999999998415 33.944996000000003278 33.97169099999999986 32.519835999999997966 31.494628999999999763 31.158604000000000411
 24.5894660000000016 26.969295999999999935 28.406373999999999569 30.188939999999998776 30.530892999999998949 30.475863000000000369 29.877494999999999692 29.649098999999999648 29.816266999999999854 30.698885000000000645 30.595406000000000546 29.659876000000000573 30.126234000000000179 31.61614799999999903 32.99714999999999776 32.681483999999997536 32.366478000000000748 32.143154000000002668 30.441904000000000963 29.535526000000000835 28.672284999999998689 28.837685000000000457 30.314672000000001617 31.142171999999998633 31.572282999999998765 32.926594000000001472 34.156818000000001234 35.997619999999997731 35.416972999999998706 35.332461999999999591 34.974716000000000804 32.806507000000003416 31.162531000000001313 29.819501999999999953
 24.352024000000000115 27.16527900000000173 28.498608000000000828 30.386552999999999258 30.905981000000000591 30.089984999999998649 29.663260999999998546 29.42361100000000107 29.382737999999999801 29.610265999999999309 29.514417999999999154 29.161525999999998504 29.677873999999999199 31.108923000000000769 33.645229000000000497 33.993972999999996887 34.789267999999999859 33.270180000000003417 30.969529999999998893 29.698477000000000459 28.041354999999999364 27.636683999999998917 28.709078000000001651 29.801763999999998589 31.487801000000001039 32.531967000000001633 33.92613200000000262 36.319468999999998005 37.539745000000003472 36.995586000000002969 36.045841000000002907 32.844551000000002716 30.139745999999998816 27.225011999999999546
 20.203417000000001735 26.663996000000000919 28.140785000000001048 30.236443000000001291 30.970877000000001544 30.164829000000001002 29.60340100000000163 29.452020999999998452 29.388853000000001003 29.269434000000000395 29.131875999999998328 29.138432000000001665 29.654464999999998298 31.170550999999999675 33.996142999999996448 34.479351000000001193 35.578032999999997799 35.664673000000000513 32.049061000000001798 29.825050000000000949 25.994897999999999172 25.937283000000000754 26.68035899999999927 28.04253399999999985 30.495588000000001472 31.692206999999999795 34.922809999999998354 36.269215000000002647 37.675800000000002399 37.141148000000001161 35.936615000000003306 32.524810999999999694 29.365297000000001759 26.32460800000000134
 15.339779999999999305 25.924054999999999183 27.328908999999999452 29.629839000000000482 30.386623000000000161 30.349261999999999517 30.464033000000000584 31.174231999999999942 31.10114499999999893 29.918044999999999334 29.722961000000001519 29.723922999999999206 30.34312399999999954 31.946412999999999727 34.766356999999999289 34.624625999999999237 35.502544000000000324 35.67624699999999649 32.333710000000003504 29.76501700000000028 25.847173999999998983 25.921682000000000556 26.713114000000000914 27.98372799999999927 30.190916000000001418 31.200724000000001013 33.420985999999999194 34.620972000000001856 36.9976040000000026 35.992240999999999929 34.522263000000002364 30.304999999999999716 27.474983000000001709 25.659872000000000014
 10.031266999999999712 15.107749999999999346 20.521761000000001474 27.45117400000000174 29.49300399999999911 30.554791999999999064 31.268629000000000673 32.503872000000001208 32.452621000000000606 31.051908000000000953 30.759682000000001523 30.554452999999998752 31.054670000000001551 32.871098000000003481 35.22792400000000157 34.395293999999999812 34.238159000000003118 34.303168999999996913 32.355308999999998321 30.471298000000000883 26.825164999999998372 26.02517299999999878 27.356290999999998803 28.692682000000001352 29.966248000000000218 30.721198999999998591 32.411613000000002671 33.590546000000003346 35.440078999999997222 34.85514100000000326 31.647465000000000401 29.65745499999999879 26.829906000000001143 26.03538899999999856
 10.012105000000000032 10.012105000000000032 15.808044999999999902 26.280211999999998795 27.397514000000001033 29.995892000000001332 31.100811000000000206 32.999473999999999307 33.28598800000000324 32.145355000000002121 31.75463099999999983 31.720038999999999874 32.704224000000003514 34.357185000000001196 35.442878999999997802 34.349369000000002927 33.516533000000002573 33.510750000000001592 32.308047999999999433 31.155470000000001107 27.968783999999999423 26.707972999999999075 27.936984999999999957 29.082322999999998814 29.618240000000000123 29.489219999999999544 29.761234000000001743 30.650278000000000134 33.383957000000002324 33.48162500000000108 31.311792000000000513 30.039115999999999929 29.702674999999999272 33.782294999999997742
 10.012105000000000032 9.9737810000000006738 9.9737810000000006738 21.990652000000000754 26.544299999999999784 29.019583000000000794 30.159362999999999033 32.332714000000002841 32.834972000000000492 31.995308000000001414 31.663107000000000113 31.734694999999998544 32.918587000000002263 35.423695000000002153 34.940936999999998136 33.984810000000003072 32.674743999999996902 32.663338000000003092 32.690894999999997594 32.485106999999999289 30.507359000000001004 29.248484000000001259 29.440684999999998439 29.430443000000000353 29.145298000000000371 28.816984000000001487 28.80288099999999929 29.623508000000001061 32.523181999999998482 33.192363999999997759 31.686551999999998941 31.081822999999999979 34.917132999999999754 37.900798999999999239
 15.162496000000000862 9.9737810000000006738 9.9737810000000006738 9.9737810000000006738 15.554076000000000235 26.313947999999999894 27.45513300000000001 30.997309000000001333 31.977412999999998533 31.73809400000000025 31.378837999999998232 31.83558800000000133 32.956283999999996581 34.961207999999999174 34.565384000000001663 32.762565999999999633 32.398411000000002957 32.375110999999996864 32.925175000000002967 32.98460399999999737 31.233384999999998399 30.159213999999998634 29.682835000000000747 29.55073499999999953 28.298715999999998871 27.769429999999999836 27.766897000000000162 28.802626000000000062 31.62303500000000156 32.577961000000001945 32.900168999999998221 32.95756099999999833 38.77908299999999997 41.084212999999998317
 24.040354000000000667 9.9737810000000006738 9.9737810000000006738 9.971999999999999531 9.971999999999999531 20.548549999999998761 25.803613999999999606 29.434259000000000839 30.872350999999998322 31.660070000000001045 31.582321000000000311 32.191341000000001316 33.178927999999999088 34.334189999999999543 33.871394999999999698 31.93472500000000025 31.316455999999998738 31.122617999999999228 31.70292299999999841 32.352558000000001925 31.254647999999999541 30.355716999999998507 29.545487999999998863 29.221730999999998346 28.258521999999999252 28.086237000000000563 28.719048000000000798 29.485240999999998479 31.696846000000000743 32.41219300000000203 32.942768000000000939 33.24846600000000052 39.458911999999997988 43.239162000000000319
 24.432863000000001108 19.885304999999998898 15.496760999999999342 9.971977000000000757 9.9719320000000006843 9.9719320000000006843 15.705228999999999218 25.62533600000000078 27.421524000000001564 30.62736900000000162 31.535118000000000649 32.665858999999997536 33.339396999999998172 34.120429999999998927 33.549548999999998955 31.347977000000000203 30.563165999999998945 30.160554999999998671 30.780581999999998999 31.539283999999998542 31.020237000000001615 30.241157999999998651 28.426262000000001251 27.611274999999999125 28.825417000000001622 29.795504000000001099 31.188316000000000372 31.615330000000000155 31.928378999999999621 32.074936000000001002 32.365878999999999621 33.206119999999998527 38.221038999999997543 41.747245999999996968
