ncols        40
nrows        41
xllcorner    2046544.606888147304
yllcorner    5441555.069347225130
cellsize     50.000000000000
 540.37829599999997754 538.49963400000001457 536.5046389999999974 536.02966300000002775 537.7822879999999941 535.89941399999997884 535.36932400000000598 534.73046899999997095 535.20642099999997754 536.96014400000001388 538.83990500000004431 538.76678500000002714 537.5358889999999974 536.74017300000002706 535.96954300000004423 535.97387700000001587 537.93682899999998881 538.464354999999955 539.08136000000001786 539.33715800000004492 539.27624500000001717 538.09094200000004093 539.07074000000000069 537.4408570000000509 536.87011700000005021 536.65313700000001518 536.55969200000004093 536.21429399999999532 534.86627199999998084 534.85870399999998881 534.96466099999997823 534.88055399999996098 534.59344499999997424 534.50945999999999003 534.886229999999955 535.49462900000003174 535.96691899999996167 536.71447799999998551 537.16650400000003174 538.1740109999999504
 536.5333859999999504 535.23400900000001457 534.88287400000001526 534.56268299999999272 533.92578100000002905 533.76068099999997685 533.78759800000000268 533.5242919999999458 533.75738499999999931 535.06311000000005151 536.04077099999994971 536.6370239999999967 535.85150099999998474 535.96740699999998014 535.14245600000003833 535.18469200000004093 536.61004600000001119 536.98950200000001587 536.75640899999996236 537.90026899999998022 537.08831799999995837 536.36743200000000797 535.82605000000000928 535.1828610000000026 535.00494400000002315 535.63024900000004891 535.5625 534.92364499999996497 534.49072300000000268 534.67175299999996696 534.53637700000001587 534.5639650000000529 534.19360400000005029 534.12469499999997424 534.44689900000003036 534.6653440000000046 534.73449700000003304 536.02740500000004431 536.05389400000001388 537.16980000000000928
 534.21606399999996029 533.80969200000004093 533.15563999999994849 533.66369599999995899 533.14184599999998682 533.20397900000000391 532.36279300000001058 531.68768299999999272 531.46777299999996558 533.53112799999996696 534.60015899999996236 535.69519000000002507 535.04522699999995439 533.66314699999998084 533.69366500000000997 535.17144800000005489 536.48443599999995968 536.64178500000002714 535.69928000000004431 535.38110400000005029 534.1007080000000542 534.82775900000001457 534.75488299999994979 534.57281499999999141 534.36621100000002116 534.18920900000000529 534.04632600000002185 534.1929930000000013 534.08258100000000468 534.22601299999996627 534.11474599999996826 533.68945299999995768 533.43701199999998153 533.19335899999998674 533.89202899999997953 534.0189820000000509 533.66296399999998812 533.05242899999996098 534.4562989999999445 536.29821800000001986
 533.52984600000002047 532.3773190000000568 531.77404799999999341 531.29913299999998344 531.47790499999996428 532.58001699999999801 531.99414100000001326 531.28533900000002177 531.49182099999995899 532.09619099999997616 532.9195559999999432 534.71942100000001119 534.14465299999994841 532.90063499999996566 533.06201199999998153 533.97381600000005619 536.17364499999996497 535.18395999999995638 534.84570299999995768 534.18511999999998352 533.10235599999998612 533.35607900000002246 534.01989700000001449 533.88324000000000069 533.75610400000005029 533.68902600000001257 533.4976809999999432 532.31347700000003442 532.02392599999996037 533.0010379999999941 533.67700200000001587 533.47442599999999402 533.23327600000004622 532.83727999999996428 533.04241899999999532 533.37042199999996228 533.4273680000000013 532.7888789999999517 534.61364700000001449 536.46893299999999272
 530.5880130000000463 530.02850300000000061 530.59942599999999402 530.37908900000002177 530.80511500000000069 531.2546389999999974 530.9195559999999432 530.49609399999997095 530.90033000000005359 531.30133100000000468 533.15008499999999003 533.37457300000005489 532.15698199999997087 531.79516599999999471 532.22460899999998674 533.18530299999997624 535.79376200000001518 534.91259800000000268 534.25201400000003105 532.4295039999999517 532.54132100000003902 532.87237500000003365 533.62341300000002775 533.5658570000000509 533.24908400000003894 533.11181599999997616 532.61535600000001978 531.94226100000003044 532.03900099999998474 532.64312700000004952 533.05316200000004301 533.54168700000002445 533.53320299999995768 532.91119400000002315 533.04760699999997087 533.48767099999997754 533.85662800000000061 533.96453899999994519 535.48626699999999801 536.62194799999997485
 529.42242399999997815 529.42394999999999072 529.5538330000000542 529.54846199999997225 530.24572799999998551 530.85162400000001526 530.61895800000002055 530.20581100000003971 529.88507100000003902 529.9151000000000522 532.17376699999999801 532.4622190000000046 531.48284899999998743 531.3695069999999987 531.9421389999999974 535.82739300000002913 537.566895000000045 534.76238999999998214 533.94287099999996826 532.62115500000004431 532.44714399999998022 532.58520499999997355 532.73126200000001518 533.23419200000000728 533.19665499999996428 532.99816899999996167 532.29931599999997616 531.80902100000002974 531.75445600000000468 532.36175500000001648 533.30249000000003434 533.72985800000003564 533.87616000000002714 533.71991000000002714 533.59600799999998344 533.46820100000002185 533.7888789999999517 534.54742399999997815 535.43487500000003365 536.27264400000001388
 528.52520800000002055 529.05456500000002507 529.20471199999997225 529.17382799999995768 529.34783900000002177 530.01568599999995968 529.9901119999999537 529.64709500000003572 529.58727999999996428 529.5817260000000033 529.73400900000001457 529.90008499999999003 530.58056599999997616 531.28619400000002315 531.8000489999999445 535.79101600000001326 534.70385699999997087 533.41412400000001526 533.05279499999994641 532.66839600000002974 532.34460400000000391 532.2223510000000033 532.3327639999999974 532.94940199999996366 533.12109399999997095 532.58056599999997616 532.20556599999997616 531.8194580000000542 531.7531739999999445 532.15490699999998014 533.08288600000003044 533.54882799999995768 533.95483400000000529 533.82403599999997823 533.59863299999994979 533.14562999999998283 533.2723999999999478 533.88922100000002047 535.09844999999995707 536.214354999999955
 528.33233600000005481 528.31781000000000859 528.18676800000002913 528.6784059999999954 528.81701699999996436 529.67254600000001119 529.81182899999998881 529.80267300000002706 529.84979199999997945 529.5963130000000092 529.46722399999998743 529.55279499999994641 530.23486300000001847 531.60516399999994519 531.53521699999998873 530.94244400000002315 531.39941399999997884 531.8538819999999987 532.35656700000004093 532.00372300000003634 531.55371100000002116 531.37280299999997624 531.98486300000001847 532.80316200000004301 533.0916140000000496 532.57104500000002645 532.28967299999999341 532.03491199999996297 531.91937299999995048 532.30017099999997754 533.00219700000002376 533.22180200000002515 533.24456799999995837 533.06921399999998812 532.88031000000000859 532.67492700000002515 532.70355199999994511 533.20892300000002706 533.94335899999998674 535.31420900000000529
 528.22009300000001986 528.02996800000005351 527.75128199999994649 527.75701900000001388 528.50793499999997493 529.13714600000002974 529.67993200000000797 530.0179440000000568 530.10211200000003373 530.04589799999996558 529.82244900000000598 529.6182250000000522 530.0076289999999517 531.94360400000005029 531.98236099999996895 531.3327639999999974 530.01031499999999141 530.29998799999998482 531.71283000000005359 531.50933799999995699 530.96368399999994381 531.18499799999995048 531.54467799999997624 532.49517800000000989 533.04107699999997294 532.58789100000001326 532.29278599999997823 532.06854199999997945 532.18066399999997884 532.85369900000000598 532.96752900000001318 532.89959699999997156 532.64593500000000859 532.32696499999997286 531.74084500000003572 531.62585400000000391 531.7233889999999974 532.40979000000004362 532.95983899999998812 533.9508059999999432
 528.1740109999999504 527.82128899999997884 527.56579599999997754 527.73718299999995907 528.61047399999995378 529.20935099999996964 529.97412099999996826 530.20941200000004301 530.28094499999997424 530.20251499999994849 529.98138400000004822 529.84484899999995378 530.51355000000000928 531.72601299999996627 532.02459699999997156 531.34643600000003971 530.57830799999999272 530.65594499999997424 531.28344700000002376 531.29400599999996757 531.53301999999996497 531.3380130000000463 532.21667500000000928 532.41809100000000399 532.34112500000003365 532.05651899999998022 531.75915499999996428 531.91326900000001388 532.0715940000000046 532.64868200000000797 532.58142099999997754 532.01232900000002246 531.72979699999996228 531.62951699999996436 531.36578399999996236 531.3786010000000033 531.81695600000000468 532.09808299999997416 532.29480000000000928 532.85595699999998942
 528.21673599999996895 527.57659899999998743 527.77300999999999931 528.42614700000001449 529.67675799999994979 529.51824999999996635 530.07946800000001986 530.23297100000002047 530.32403599999997823 530.30462599999998474 530.1452639999999974 530.13207999999997355 531.06243900000004032 532.31768799999997555 532.64263900000003105 532.24511700000005021 531.38659700000005159 531.06640600000002905 531.23370399999998881 531.46380599999997685 532.32000700000003235 533.16455099999996037 533.80529799999999341 532.64093000000002576 531.68829300000004423 531.37689199999999801 530.8414309999999432 530.5555419999999458 530.50305200000002515 532.10913100000004761 532.1374510000000555 531.74816899999996167 531.56469700000002376 531.31890899999996236 531.30389400000001388 531.34747300000003634 532.15508999999997286 532.69049099999995178 532.5635379999999941 532.70422399999995378
 528.1973880000000463 527.65460199999995439 527.8648680000000013 529.6104129999999941 530.01684599999998682 530.15270999999995638 530.45007299999997485 530.34063700000001518 530.4208370000000059 530.44341999999994641 530.36749299999996765 530.75421100000005481 533.14434800000003634 533.06402600000001257 533.16925000000003365 532.69232199999999011 531.64172399999995378 530.75109899999995378 531.03308100000003833 531.99823000000003503 532.69457999999997355 534.05743399999994381 534.14648399999998674 533.37640399999997953 530.80011000000001786 530.7166140000000496 530.51080300000000989 530.1961669999999458 530.56982400000003963 531.15008499999999003 531.4677120000000059 531.36889599999994971 531.41003399999999601 531.26556400000004032 531.28594999999995707 531.78051800000002913 532.63207999999997355 533.40460199999995439 532.76422100000002047 532.76501499999994849
 528.05816700000002584 527.80419900000003963 528.06573500000001786 529.44274900000004891 530.04669200000000728 530.36437999999998283 530.6999510000000555 531.79040499999996428 531.74230999999997493 531.43530299999997624 530.67413299999998344 531.00622599999996964 533.55828899999994519 534.13903800000002775 533.95574999999996635 534.0588989999999967 532.43823199999997087 530.74883999999997286 530.89489700000001449 531.6843260000000555 532.30249000000003434 533.32550000000003365 534.00720200000000659 531.8817749999999478 530.9252320000000509 530.98059100000000399 531.42932099999995899 531.34912099999996826 530.80474900000001526 531.28179899999997815 531.49645999999995638 531.35186799999996765 531.21227999999996428 530.94122300000003634 531.12616000000002714 531.87921100000005481 532.58599900000001526 533.22814900000003036 532.75048800000001847 533.58898899999996956
 527.77624500000001717 527.8884890000000496 528.17724599999996826 529.27593999999999141 529.73211700000001656 530.5557250000000522 531.11608899999998812 532.40313700000001518 532.29339600000002974 531.69812000000001717 531.41589399999998022 531.41467299999999341 533.9096070000000509 534.43811000000005151 534.24700900000004822 534.37829599999997754 531.9408570000000509 530.9598999999999478 530.69519000000002507 531.21014400000001388 531.71984899999995378 532.60266100000001188 532.77606200000002445 531.70434599999998682 531.32391399999994519 532.00970500000005359 532.2576289999999517 532.26574700000003304 532.22229000000004362 532.15734899999995378 531.72186299999998482 531.42248500000005151 530.92230199999994511 530.78259300000001986 531.01940899999999601 532.02300999999999931 532.3380130000000463 532.82843000000002576 532.56835899999998674 533.40118399999994381
 527.71496600000000399 527.86108400000000529 528.4719239999999445 529.19891399999994519 530.28210400000000391 530.88031000000000859 531.57910200000003442 532.76690699999994649 532.65466300000002775 531.9567260000000033 531.58331299999997555 532.23596199999997225 533.79425000000003365 534.47985800000003564 534.25915499999996428 534.44030799999995907 532.25738499999999931 530.99981700000000728 530.49279799999999341 530.67327899999997953 531.37408400000003894 531.96636999999998352 532.16436799999996765 531.45318599999995968 531.21350099999995109 532.09191899999996167 532.45898399999998674 532.75634800000000268 532.5749510000000555 532.20483400000000529 531.65588400000001457 531.53912400000001526 531.19750999999996566 530.76989700000001449 531.61285399999997026 532.09393299999999272 532.32531700000004093 532.36022900000000391 532.41741899999999532 533.12616000000002714
 527.83978300000001127 527.81359899999995378 527.97790499999996428 528.52935800000000199 530.90661599999998543 531.29303000000004431 532.57177699999999732 532.75299099999995178 532.56439199999999801 531.70690899999999601 531.28411900000003243 531.75738499999999931 533.11920199999997294 534.11901899999998022 534.0133059999999432 534.01062000000001717 531.95239300000002913 530.77056900000002315 530.44012499999996635 530.62304700000004232 531.29199200000005021 531.49975600000004761 531.36962900000003174 530.77044699999999011 530.76086399999996956 531.45178199999998014 531.78289800000004561 531.5124510000000555 531.09918200000004163 530.61743200000000797 531.15087900000003174 531.25579800000002706 531.54846199999997225 531.57653800000002775 531.92999299999996765 532.18450900000004822 532.31841999999994641 532.3920900000000529 532.82281499999999141 533.21240199999999732
 528.16772500000001855 527.70361300000001847 527.53375200000004952 528.1492919999999458 531.18231200000002445 532.61492899999996098 532.81213400000001457 531.94940199999996366 531.74261500000000069 531.41272000000003572 531.05181900000002315 530.86480700000004163 531.55505400000004101 532.8234860000000026 533.45202600000004622 532.50671399999998812 531.46264599999994971 530.2276000000000522 530.20465100000001257 530.36999500000001717 531.20043899999996029 531.33795199999997294 530.76873799999998482 530.24847399999998743 529.82861300000001847 529.91461200000003373 530.54748500000005151 530.50555399999996098 529.80578600000001188 530.09893799999997555 530.30273399999998674 531.27563499999996566 531.70184300000005351 531.87792999999999211 532.04907200000002376 532.25262499999996635 532.42205799999999272 532.5181880000000092 533.0211180000000013 533.22058100000003833
 528.27642800000000989 527.08966099999997823 527.05468800000005558 528.995604999999955 530.91741899999999532 532.14788799999996627 531.63610800000003564 530.91308600000002116 530.32818599999995968 530.36090100000001257 530.53930700000000797 530.65637200000003304 531.12542699999994511 532.1070559999999432 531.6072390000000496 530.44482400000003963 530.71044900000003963 529.85382100000003902 529.77191200000004301 529.91900599999996757 529.9005130000000463 529.40844700000002376 529.41735800000003564 529.42327899999997953 529.42919900000003963 529.43218999999999141 529.8026119999999537 529.83050500000001648 529.8494869999999537 530.03332499999999072 530.2210690000000568 531.1704099999999471 531.42456100000003971 531.70184300000005351 532.17584199999998873 532.65448000000003503 532.62609899999995378 532.66284199999995508 533.27752699999996366 533.57287599999995109
 528.74554399999999532 526.77960199999995439 526.89123500000005151 528.5257569999999987 529.67181400000004032 530.04931599999997616 529.68481399999996029 529.9197390000000496 529.57092299999999341 529.71783400000003894 530.1395870000000059 530.38659700000005159 530.99414100000001326 531.41516100000001188 530.67254600000001119 529.72582999999997355 529.34204099999999471 528.87023899999996956 528.88592500000004293 529.39953600000001188 529.40252699999996366 529.77563499999996566 529.98449700000003304 530.22955300000000989 530.76477099999999609 530.07287599999995109 530.04876699999999801 529.6752320000000509 529.54534899999998743 529.81158400000003894 530.03448500000001786 530.50610400000005029 530.6661380000000463 531.16168200000004163 532.0291140000000496 533.48468000000002576 533.44030799999995907 533.37725799999998344 533.51507600000002185 533.81475799999998344
 527.3848880000000463 526.14453100000002905 525.83624299999996765 527.7119750000000522 528.83410600000001978 529.58978300000001127 529.2409059999999954 528.4877320000000509 528.44982900000002246 529.13977099999999609 529.84716800000001058 530.17602499999998145 530.5122679999999491 529.93835400000000391 528.9265139999999974 529.22094700000002376 528.77075200000001587 528.89544699999999011 528.96887200000003304 529.34075900000004822 529.59344499999997424 530.34155299999997624 530.59075900000004822 531.07940699999994649 531.18829300000004423 531.10369900000000598 530.70538299999998344 530.3023680000000013 529.52404799999999341 529.99493399999994381 530.25610400000005029 530.12774699999999939 530.7096559999999954 531.31970200000000659 532.05944799999997485 533.79840100000001257 533.79205300000000989 533.65148899999996956 534.05957000000000789 534.60919200000000728
 526.61895800000002055 525.53289800000004561 525.44915800000001127 525.8171389999999974 526.54986599999995178 528.72357199999999011 529.0559690000000046 528.09442100000001119 528.05651899999998022 528.46050999999999931 528.96673599999996895 529.24285899999995308 529.75085400000000391 529.31384300000001986 528.71429399999999532 528.93438700000001518 529.25878899999997884 529.50860599999998612 529.25323500000001786 529.39361599999995178 529.74163799999996627 530.82891800000004423 531.43756099999995968 531.91992200000004232 531.59002699999996366 531.79534899999998743 531.81195100000002185 531.73083499999995638 531.56011999999998352 531.5392460000000483 530.71350099999995109 530.7107539999999517 531.57312000000001717 532.17126499999994849 533.62945600000000468 534.0817260000000033 534.13104199999997945 533.9229129999999941 534.36199999999996635 535.04070999999999003
 524.29766800000004423 523.8348999999999478 524.52899200000001656 524.86852999999996428 526.27929700000004232 527.5090940000000046 527.94891399999994519 527.38763400000004822 527.7172849999999471 528.24694799999997485 528.59930399999996098 528.5682369999999537 528.59252900000001318 528.61688200000003235 528.73962400000004891 528.87023899999996956 529.60662800000000061 530.06292699999994511 531.66241500000000997 532.22381600000005619 532.00457800000003772 531.64977999999996428 532.20733600000005481 532.33184800000003634 532.31207300000005489 533.38360599999998612 533.80981399999996029 533.12359600000002047 533.08892800000000989 532.20666500000004362 532.17413299999998344 532.44622800000001916 533.22503700000004301 533.08422900000005029 533.95483400000000529 534.22827099999994971 534.27099599999996826 534.4710690000000568 534.98248300000000199 535.48413100000004761
 523.379395000000045 522.93115199999999732 523.34789999999998145 523.37457300000005489 524.11010699999997087 525.61492899999996098 526.54003899999997884 526.91809100000000399 527.1239620000000059 527.98516800000004423 528.54101600000001326 528.54388400000004822 528.90832499999999072 528.96929899999997815 528.76599099999998543 529.26812700000004952 529.94531300000005558 530.50128199999994649 532.41357400000003963 532.5610349999999471 531.95178199999998014 532.10082999999997355 532.51824999999996635 532.48980700000004163 532.46783400000003894 533.61908000000005359 534.18005400000004101 534.73046899999997095 534.6889650000000529 532.74713099999996757 532.54003899999997884 532.83270300000003772 533.28454599999997754 533.87768600000003971 534.62554899999997815 534.49890100000004622 534.73736599999995178 534.99475099999995109 536.16815199999996366 536.34570299999995768
 522.82281499999999141 523.03985599999998612 523.17431599999997616 523.37542699999994511 523.92437700000004952 524.32971199999997225 525.3502809999999954 526.20727499999998145 527.48742700000002515 528.12023899999996956 528.78552200000001449 529.95355199999994511 530.171875 529.5067749999999478 529.20953399999996236 529.4108889999999974 529.95159899999998743 531.46765100000004622 532.12121600000000399 532.16143799999997555 531.50451699999996436 531.55926499999998214 532.0650630000000092 532.15063499999996566 532.75891100000001188 533.53765899999996236 534.24676499999998214 535.09912099999996826 535.12927200000001449 533.66021699999998873 532.82672100000002047 532.18566899999996167 533.0538330000000542 534.38159199999995508 534.88098100000001978 535.36035200000003442 536.1239620000000059 536.464354999999955 536.79089399999998022 536.85522500000001855
 522.75555399999996098 522.72894299999995837 522.86370799999997416 523.23706100000003971 523.58337400000004891 523.87701400000003105 524.82910200000003442 525.26635699999997087 527.24188200000003235 528.3492430000000013 529.54949999999996635 529.93078600000001188 530.59674099999995178 530.48602300000004561 529.87945600000000468 529.29669200000000728 529.86035200000003442 531.36370799999997416 531.96154799999999341 531.51007100000003902 530.9499510000000555 530.91332999999997355 531.65789800000004561 531.93267800000000989 532.79486099999996895 533.50512700000001587 534.95623799999998482 535.63214100000004692 535.05304000000000997 534.08160399999997026 533.05267300000002706 532.07513400000004822 532.70983899999998812 534.77343800000005558 535.15582300000005489 536.20269800000005489 536.53363000000001648 536.90582300000005489 538.01251200000001518 538.30615199999999732
 523.12890600000002905 523.30230700000004163 523.2822879999999941 523.06701699999996436 523.1359860000000026 523.77099599999996826 524.45581100000003971 524.90460199999995439 527.20434599999998682 528.11138900000003105 528.46429399999999532 528.46698000000003503 530.25897199999997156 530.32074000000000069 528.99523899999996956 528.84289599999999609 529.18499799999995048 531.65228300000001127 532.02130099999999402 531.78161599999998543 531.24780299999997624 531.17462199999999939 531.41558799999995699 531.97534199999995508 533.42492700000002515 533.60009800000000268 535.01049799999998413 535.77905299999997624 535.85034199999995508 534.83483899999998812 533.1961669999999458 532.54821800000001986 533.2677609999999504 535.19482400000003963 535.86602800000002844 536.65692100000001119 536.77526899999998022 537.55175799999994979 538.46685800000000199 539.4554440000000568
 524.82055700000000797 524.8975830000000542 524.0610349999999471 523.01959199999998873 522.8891599999999471 523.44830300000000989 523.6038819999999987 524.97686799999996765 526.3874510000000555 527.54156499999999141 527.53552200000001449 527.5758059999999432 528.76342799999997624 529.38507100000003902 528.2554930000000013 528.26550299999996696 529.9309690000000046 532.01568599999995968 532.91259800000000268 532.69128399999999601 532.42639199999996436 531.40814199999999801 531.48358199999995577 533.18701199999998153 533.8336180000000013 534.38665800000001127 535.0994869999999537 535.88562000000001717 536.24285899999995308 535.30480999999997493 534.0694580000000542 534.32971199999997225 535.02380400000004101 535.34307899999998881 536.07055700000000797 536.91210899999998674 536.90313700000001518 538.54333499999995638 541.32421899999997095 547.2624510000000555
 525.09704599999997754 525.25707999999997355 524.74316399999997884 523.8135379999999941 523.00048800000001847 523.21948199999997087 523.41992200000004232 525.05658000000005359 526.74823000000003503 527.27954099999999471 527.1932369999999537 527.63012700000001587 528.5454099999999471 529.30218500000000859 528.63824499999998352 528.5791629999999941 529.94317599999999402 531.99920699999995577 533.29846199999997225 533.09356700000000728 532.93939199999999801 531.91949499999998352 531.48370399999998881 533.32470699999998942 534.16247599999996964 534.74151600000004692 535.47082499999999072 537.4966429999999491 537.79064900000003036 537.70068400000002384 535.40002400000003036 535.54522699999995439 535.18817100000001119 535.58624299999996765 537.42346199999997225 538.12188700000001518 537.62030000000004293 540.51715100000001257 544.35022000000003572 550.89782700000000659
 524.99615500000004431 525.43731700000000728 525.14324999999996635 524.57305899999994381 523.05621299999995699 522.98602300000004561 523.41375700000003235 527.66876200000001518 527.74816899999996167 528.2565309999999954 528.13128700000004301 528.47747800000001916 529.29357900000002246 530.42571999999995569 529.49572799999998551 529.65277100000002974 530.4600830000000542 531.65789800000004561 533.98962400000004891 533.9742430000000013 533.23394800000005489 532.32525599999996757 531.4818119999999908 532.83367899999996098 533.49352999999996428 535.21429399999999532 536.01831100000003971 538.55847200000005159 539.2692260000000033 539.74585000000001855 539.50732400000003963 538.47259499999995569 535.24700900000004822 535.29480000000000928 537.28747599999996964 538.48809800000003634 542.14477499999998145 546.28716999999994641 550.26623500000005151 554.22082499999999072
 524.83557099999995899 525.33367899999996098 525.64752199999998084 525.4664309999999432 523.66668700000002445 523.19555700000000797 526.53253199999994649 528.46038799999996627 529.78851299999996627 529.70001200000001518 529.09387200000003304 529.25134300000001986 529.98681599999997616 531.01440400000001318 531.23803699999996297 532.00817900000004101 531.14080799999999272 531.69885299999998551 534.15600600000004761 534.45867899999996098 534.6416629999999941 534.34765600000002905 532.54461700000001656 532.04284700000005159 533.46020499999997355 535.10357699999997294 537.13684100000000399 542.24993900000004032 544.35455300000000989 542.38439900000003036 541.50726299999996627 537.37597700000003442 536.49517800000000989 536.56634499999995569 537.32720900000003894 538.53539999999998145 544.54907200000002376 548.46636999999998352 555.72369400000002315 557.98156700000004093
 524.72375499999998283 525.73571800000001986 525.77886999999998352 525.61010699999997087 524.94860800000003564 524.29144299999995837 527.2766110000000026 529.20953399999996236 529.84796100000005481 529.70715299999994841 529.68023700000003373 529.86529499999994641 530.25622599999996964 531.26678500000002714 531.75878899999997884 532.4776000000000522 532.28436299999998482 533.828125 535.03790300000002844 534.99725300000000061 535.48260500000003503 535.50671399999998812 534.69567900000004101 533.95532200000002376 535.59234600000002047 535.64337199999999939 541.2141110000000026 543.9723510000000033 546.06695600000000468 546.62054399999999532 545.52172900000005029 539.50567599999999402 537.90033000000005359 538.75067100000001119 538.96240199999999732 540.90362500000003365 547.91400099999998474 550.21923800000001847 556.426270000000045 558.80523700000003373
 524.63201900000001388 525.34338400000001457 525.78070100000002185 525.62023899999996956 524.51495399999998881 523.84198000000003503 526.81359899999995378 528.97723399999995308 529.57897900000000391 529.75292999999999211 529.96710199999995439 530.06195100000002185 530.53430200000002515 531.17498799999998482 532.02941899999996167 532.79333499999995638 532.7008059999999432 534.53576699999996436 535.69457999999997355 537.46508800000003703 538.37420699999995577 539.47418200000004163 536.59332300000005489 536.23053000000004431 538.31695600000000468 539.75976600000001326 545.0399169999999458 547.40112299999998413 549.03204300000004423 549.23278800000002775 548.50787400000001526 546.60919200000000728 545.49835199999995439 545.96911599999998543 542.37145999999995638 547.43158000000005359 549.45843500000000859 554.22454800000002706 556.09136999999998352 558.74883999999997286
 524.70758100000000468 525.2827150000000529 525.73663299999998344 526.63732900000002246 525.96203600000001188 525.79278599999997823 526.71191399999997884 529.1173710000000483 529.44628899999997884 529.74951199999998153 529.83819600000003902 529.72039800000004561 530.30950900000004822 530.92706299999997555 532.66644299999995837 533.1047360000000026 533.05645800000002055 534.9810179999999491 536.34875499999998283 539.23474099999998543 540.71789599999999609 542.32379200000002584 542.82464600000002974 544.18237299999998413 541.72778300000004492 543.17407200000002376 547.69726600000001326 550.09393299999999272 554.31054700000004232 555.8870239999999967 552.63519299999995837 552.2056880000000092 551.71636999999998352 552.28131099999995968 552.70806900000002315 553.91027799999994841 551.7020870000000059 555.1838989999999967 557.66027799999994841 562.74902299999996558
 525.04168700000002445 525.13214100000004692 525.34454300000004423 526.95519999999999072 526.79595900000003894 526.31848100000001978 526.7744750000000522 527.53546100000005481 528.96460000000001855 529.26428199999998014 529.0713500000000522 528.85192900000004101 529.01983600000005481 529.72882100000003902 532.34973100000001978 533.19946300000003703 534.21356200000002445 536.41790800000001127 538.948729999999955 543.41265899999996236 543.07482900000002246 545.3884890000000496 546.32531700000004093 547.94256600000005619 548.70105000000000928 552.38507100000003902 554.25396699999998873 553.39465299999994841 557.87884499999995569 560.31011999999998352 565.46093800000005558 566.6921389999999974 566.06268299999999272 558.84179700000004232 558.19671600000003764 558.20239300000002913 559.20959500000003572 560.80456500000002507 561.7546389999999974 563.77392599999996037
 525.07946800000001986 525.40899699999999939 526.50860599999998612 526.97930899999994381 526.42828399999996236 526.53137200000003304 526.82061799999996765 527.06079099999999471 526.79333499999995638 526.36102300000004561 526.58367899999996098 528.03344700000002376 528.58569299999999203 529.60565199999996366 532.8361210000000483 534.73156700000004093 538.55645800000002055 538.51751699999999801 543.8651119999999537 545.94097899999997026 549.99414100000001326 551.50286900000003243 552.6340940000000046 551.38879399999996167 552.21758999999997286 555.57092299999999341 557.2901000000000522 561.60162400000001526 565.59851100000003044 565.61230499999999211 570.87365699999998014 573.0422360000000026 572.23089600000002974 569.58557099999995899 568.32843000000002576 563.10247800000001916 563.86877400000003036 564.36077899999997953 565.31762700000001587 568.36364700000001449
 527.90777600000001257 526.56359899999995378 527.53631600000005619 527.65795900000000529 526.91326900000001388 526.12463400000001457 525.22699000000000069 526.67999299999996765 526.47595200000000659 526.18158000000005359 526.60003700000004301 528.65869099999997616 530.44702099999994971 532.42102099999999609 534.4284059999999954 537.10516399999994519 541.58032200000002376 543.68304399999999532 548.8367919999999458 548.45263699999998153 552.61621100000002116 554.02880900000002384 555.81304899999997815 557.0588989999999967 558.1729129999999941 561.51196300000003703 560.27606200000002445 564.84185800000000199 568.67224099999998543 577.11450200000001587 580.64184599999998682 584.59423800000001847 577.76525900000001457 575.36920199999997294 573.58843999999999141 572.13580300000000989 572.40741000000002714 573.60522500000001855 570.81744400000002315 572.25707999999997355
 531.5502320000000509 532.45465100000001257 531.47937000000001717 528.7119750000000522 526.87249799999995048 525.35589600000002974 522.18670699999995577 521.67767300000002706 522.21966599999996106 523.08136000000001786 526.08843999999999141 530.51946999999995569 533.1395870000000059 538.2390139999999974 540.48718299999995907 546.36053500000002714 544.88134800000000268 549.214354999999955 551.63525400000003174 553.43676800000002913 556.53729199999997945 557.92468299999995907 558.36651600000004692 559.63861099999996895 562.77148399999998674 564.48883100000000468 566.67462199999999939 571.31133999999997286 571.67559800000003634 581.03936799999996765 585.30029300000001058 587.60144000000002507 584.59332300000005489 584.5046389999999974 578.93920900000000529 577.1630249999999478 577.06854199999997945 578.31518600000003971 581.98272699999995439 583.26599099999998543
 534.5570069999999987 537.21850600000004761 536.0880130000000463 531.0344239999999445 527.91339100000004692 525.31732199999999011 521.18725600000004761 519.3659059999999954 520.83544900000003963 523.24169900000003963 532.0922849999999471 536.95245399999998881 536.7858889999999974 542.28222700000003442 544.56243900000004032 549.54937700000004952 551.44451900000001388 555.43652299999996558 554.83264199999996436 557.60192900000004101 558.69592299999999341 559.68621800000005351 562.140625 563.37695299999995768 567.10955799999999272 566.91803000000004431 571.29333499999995638 574.12475600000004761 577.62261999999998352 586.19195600000000468 590.10034199999995508 589.26477099999999609 587.44268799999997555 587.59350600000004761 587.41857900000002246 587.58416699999997945 588.01727300000004561 583.88348399999995308 587.84344499999997424 589.19519000000002507
 542.42065400000001318 544.89446999999995569 540.44531300000005558 534.37536599999998543 530.50897199999997156 525.98706100000003971 524.5031739999999445 523.79907200000002376 527.41839600000002974 526.62792999999999211 536.01031499999999141 540.89373799999998482 547.39520300000003772 549.99572799999998551 552.25116000000002714 552.45758100000000468 554.3226319999999987 558.9465940000000046 560.48919699999999011 562.3616940000000568 562.31616199999996297 561.8259890000000496 562.97576900000001388 564.11535600000001978 569.03625499999998283 571.9288330000000542 578.35101299999996627 577.95971699999995508 585.0603640000000496 588.75848399999995308 592.6864620000000059 593.42260699999997087 592.69024699999999939 590.23187299999995048 590.60253899999997884 592.62902799999994841 593.67279099999996106 597.96313499999996566 599.87640399999997953 594.76428199999998014
 549.13653599999997823 549.55163600000003044 549.53539999999998145 544.52850300000000061 539.96405000000004293 528.25665300000002844 527.07855199999994511 528.67181400000004032 531.7312010000000555 535.64300500000001648 544.84564199999999801 544.82299799999998413 551.90246600000000399 553.81890899999996236 556.99883999999997286 558.71215800000004492 563.90966800000001058 562.67327899999997953 564.17388900000003105 564.8608400000000529 564.145020000000045 563.11267099999997754 563.69628899999997884 567.29095500000005359 570.63879399999996167 574.06317100000001119 582.25262499999996635 586.80407700000000659 594.40637200000003304 597.2210690000000568 595.95147699999995439 595.5635379999999941 595.2903440000000046 596.04254200000002584 597.52014199999996436 601.41882299999997485 598.55310099999996964 603.20446800000001986 604.66442900000004101 604.6395870000000059
 558.6693119999999908 554.14843800000005558 552.94439699999998084 549.46038799999996627 545.16406300000005558 540.53039599999999609 538.7322390000000496 540.82965100000001257 537.05615199999999732 544.94775400000003174 549.44232199999999011 553.60235599999998612 559.85229500000002645 561.38757299999997485 560.8114620000000059 562.63165300000002844 567.6104129999999941 570.32617200000004232 572.56243900000004032 571.41046100000005481 566.31372099999998682 564.39129600000001119 565.1729129999999941 570.73608400000000529 574.72894299999995837 585.0124510000000555 586.35845900000003894 591.70971699999995508 599.46276899999998022 601.76837199999999939 602.30169699999999011 602.56738299999994979 599.01946999999995569 600.4127809999999954 604.01806599999997616 605.86932400000000598 607.79101600000001326 610.92199700000003304 608.7430419999999458 608.73571800000001986
