ncols        96
nrows        45
xllcorner    2336997.29606
yllcorner    6843845.53327
cellsize     50.000000000000
108.03109700000000259 108.22924000000000433 108.55538900000000524 108.57651500000000055 108.39221999999999468 108.06580399999999997 107.87789200000000278 107.54778299999999547 106.83625800000000083 107.04290799999999706 107.36177800000000104 107.73517599999999561 108.36469999999999914 109.25994900000000598 108.73098000000000241 108.87623600000000579 108.88688700000000154 108.87901300000000049 108.87519799999999748 108.61551699999999698 108.34922000000000253 107.8843609999999984 107.12160500000000241 107.11959799999999632 106.74334000000000344 106.54506700000000308 106.37130700000000161 106.36946100000000115 106.39109000000000549 106.41085800000000461 106.22894300000000101 106.2913819999999987 106.45336899999999503 105.85572100000000262 103.54122900000000129 100.43205299999999625 95.565421999999998093 93.175278000000005818 90.684746000000004074 88.908439999999998804 86.475066999999995687 85.699600000000003774 85.434096999999994182 85.062888999999998418 84.57409699999999475 81.435516000000006898 78.07681999999999789 76.738014000000006831 76.592299999999994498 76.592299999999994498 76.597046000000005961 76.597992000000004964 76.599891999999996983 76.599891999999996983 76.600837999999995986 76.600837999999995986 76.600837999999995986 76.599891999999996983 77.283600000000006958 80.424216999999998734 82.275283999999999196 83.511504999999999654 86.75396700000000294 88.353461999999993282 88.843491000000000213 88.685608000000001994 88.439560000000000173 88.593811000000002309 88.489258000000006632 88.300445999999993774 88.272728000000000748 88.306206000000003087 88.342208999999996877 88.125091999999995096 88.135047999999997614 88.172912999999994099 88.203682000000000585 88.20943499999999915 88.225075000000003911 88.231087000000002263 88.258697999999995432 88.25845300000000293 88.088134999999994079 87.515754999999998631 87.039574000000001774 87.023201000000000249 87.680556999999993195 89.863303999999999405 90.700728999999995494 91.28117399999999293 91.085769999999996571 91.038032999999998651 91.171638000000001512 91.432113999999998555 90.487510999999997807 91.215759000000005585
108.73973800000000267 108.80237599999999532 109.03821600000000558 109.99438499999999408 109.24228700000000458 108.95698500000000308 108.64577500000000043 108.550422999999995 108.53662900000000491 108.18915599999999699 108.5588989999999967 109.02546700000000612 109.87931799999999782 110.17472800000000177 109.83174900000000207 109.22032199999999591 109.06621599999999717 108.84194200000000308 108.7351680000000016 108.70262900000000172 108.47289299999999912 107.52584099999999978 107.17761199999999633 107.13296499999999867 107.06292700000000195 106.77512400000000525 106.45833600000000274 106.46514100000000269 106.46983299999999417 106.47232800000000452 106.53990899999999442 106.74581100000000333 107.16120100000000548 107.0862730000000056 105.66237599999999475 101.92964200000000119 97.092735000000004675 94.224463999999997554 92.380996999999993591 90.172873999999993089 88.036888000000004695 87.762207000000003632 87.006568999999998937 87.261504999999999654 87.717903000000006841 83.765404000000003748 81.719498000000001525 77.905913999999995667 76.6907810000000012 76.59419300000000419 76.597046000000005961 76.597992000000004964 76.600837999999995986 76.600837999999995986 76.603683000000003744 76.603683000000003744 76.603683000000003744 76.603683000000003744 76.600837999999995986 78.977172999999993408 81.297843999999997777 82.553841000000005579 83.733879000000001724 87.284294000000002711 87.696098000000006323 87.831642000000002213 87.875129999999998631 87.89081600000000094 88.096847999999994272 88.356041000000004715 88.4279329999999959 88.473952999999994518 88.467926000000005615 88.227515999999994278 88.220955000000003565 88.211296000000004369 88.152679000000006226 87.853347999999996887 87.745086999999998056 88.091537000000002422 88.103210000000004243 88.149742000000003372 87.923050000000003479 87.802681000000006861 87.742301999999995132 87.362189999999998236 88.082984999999993647 89.536285000000006562 90.2993850000000009 90.804587999999995418 91.005927999999997269 91.42841300000000615 91.717590000000001282 92.059921000000002778 92.433937000000000239 92.62421399999999494
109.28195200000000398 109.41447399999999845 110.04629500000000064 110.52663400000000138 110.81287399999999366 109.75261700000000076 109.12129199999999685 108.74686400000000219 108.69334399999999619 108.61071800000000565 108.86589100000000485 109.76026899999999387 110.34356699999999307 110.59916699999999423 110.29592100000000698 109.67094400000000576 108.99788700000000574 108.88821400000000494 108.98490900000000181 108.9220499999999987 108.17470600000000047 107.50471500000000447 107.02258299999999736 106.90223699999999951 106.82473000000000241 106.5350040000000007 106.4740680000000026 106.4719999999999942 106.4719999999999942 106.4719999999999942 106.80116999999999905 107.15441099999999608 107.45140100000000416 107.66649599999999509 105.69258899999999812 104.13799299999999448 101.9024959999999993 97.0491180000000071 94.77881600000000617 90.861305000000001542 89.646056999999998993 88.687019000000006486 88.808395000000004416 88.44752499999999884 88.236984000000006745 86.326430999999999472 84.400513000000003672 81.931976000000005911 76.679000999999999522 76.59419300000000419 76.597046000000005961 76.597992000000004964 76.600837999999995986 76.603683000000003744 76.603683000000003744 76.605582999999995764 76.605582999999995764 76.605582999999995764 76.605582999999995764 77.669967999999997232 78.832710000000005834 80.223220999999995229 82.693420000000003256 83.325744999999997731 85.882050000000006662 86.386848000000000525 86.790420999999994933 87.544312000000005014 87.790015999999994278 88.07390599999999381 88.419883999999996149 88.48100300000000118 88.333832000000001017 88.048705999999995697 87.815597999999994272 88.022048999999995544 87.648314999999996644 87.35145599999999888 87.186340000000001282 87.135634999999993511 87.699523999999996704 87.923964999999995484 87.98332200000000114 88.094170000000005416 88.319869999999994548 88.761764999999996917 88.900786999999994009 89.389481000000003519 89.905212000000005901 90.269165000000000987 90.826462000000006469 91.508606000000000336 91.954407000000003336 92.257683000000000106 92.433693000000005213 93.346725000000006389
110.18513500000000249 110.12108600000000536 110.46632400000000018 110.90720399999999302 111.14096100000000433 111.15560899999999833 109.91739699999999402 109.40684500000000412 109.39378399999999658 109.38697799999999916 109.18789700000000664 109.50665300000000002 110.27612299999999834 110.6136020000000002 110.54612699999999847 109.70698500000000308 109.47807299999999486 109.10211900000000185 109.22075700000000609 109.07966600000000312 108.25974300000000028 107.51455699999999638 106.84995999999999583 106.68961299999999426 106.60141000000000133 106.51690700000000334 106.47366300000000194 106.47299999999999898 106.4719999999999942 106.54316699999999685 106.82424899999999468 107.20065300000000263 107.60096699999999714 107.9014049999999969 106.89875000000000682 105.57147199999999998 103.99408699999999328 102.388023000000004 95.299660000000002924 93.179726000000002273 91.42590300000000525 89.927536000000003469 89.474457000000001017 88.963982000000001449 88.5685579999999959 88.007598999999999023 86.98669399999999996 85.699707000000003632 80.041427999999996246 76.679000999999999522 76.597046000000005961 76.597992000000004964 76.602737000000004741 76.603683000000003744 76.606528999999994767 76.605582999999995764 76.606528999999994767 76.606528999999994767 76.606528999999994767 76.606528999999994767 77.442841000000001372 78.267632000000006087 80.513503999999997518 81.840896999999998229 82.694107000000002472 84.716942000000003077 86.471107000000003495 87.146172000000007074 87.523887999999999465 87.923491999999995983 88.34771700000000294 88.484466999999995096 88.326064999999999827 87.96089200000000119 87.665420999999994933 87.608581999999998402 87.412209000000004266 87.078209000000001083 86.904876999999999043 86.898071000000001618 87.410529999999994288 87.765204999999994584 88.032127000000002681 88.323288000000005127 88.660690000000002442 89.252548000000004436 89.369254999999995448 89.378417999999996368 89.604934999999997558 89.808075000000002319 90.485068999999995754 91.078093999999993002 91.938530000000000086 92.24288900000000524 92.598549000000005549 93.021439000000000874
110.80355099999999879 110.85555300000000045 110.78610999999999365 111.15708899999999915 111.39771299999999599 111.48770100000000127 111.63718400000000486 110.70617699999999672 110.77195700000000045 110.62494700000000591 110.38650499999999965 110.33046699999999873 110.53639200000000642 110.65088699999999733 110.44187900000000013 110.0740509999999972 109.84120199999999556 109.67700200000000166 109.33360299999999654 108.78639200000000642 108.35858899999999494 107.69264200000000642 107.06162999999999386 106.67827599999999677 106.64456900000000417 106.55201700000000642 106.48253599999999608 106.47299999999999898 106.4719999999999942 106.51755500000000154 106.74799299999999391 107.06655100000000402 107.42182900000000245 107.73944099999999935 107.23605299999999829 106.2814249999999987 105.32801100000000361 102.27425399999999911 99.846198999999998591 97.947997999999998342 93.267212000000000671 91.237960999999998535 89.730812000000000239 89.16073599999999999 88.656730999999993514 88.329002000000002681 88.070853999999997086 86.394608000000005177 82.130409000000000219 79.122016999999999598 76.679000999999999522 76.600837999999995986 76.602737000000004741 76.603683000000003744 76.606528999999994767 76.608429000000000997 76.608429000000000997 76.608429000000000997 76.608429000000000997 76.608429000000000997 76.608429000000000997 78.126761999999999375 78.498123000000006755 79.657318000000003622 81.36199999999999477 83.263015999999993255 84.801322999999996455 86.76468699999999501 87.342667000000005828 87.853827999999992926 88.7028580000000062 88.639647999999993999 88.354468999999994594 87.958922999999998638 87.616462999999995986 87.721001000000001113 87.736609999999998877 87.219977999999997564 87.219916999999995255 87.518355999999997152 87.770401000000006775 88.104079999999996176 88.451935000000005971 88.534064999999998236 89.231780999999998016 89.443854999999999222 89.471214000000003352 89.431458000000006336 89.399437000000006037 89.70233899999999494 90.121178000000000452 90.646056999999998993 91.327056999999996378 92.113349999999996953 92.224746999999993591 92.589973000000000525
111.07649200000000178 111.11877400000000193 111.20402500000000146 111.28215799999999547 111.46599600000000407 111.50092300000000023 111.70072899999999549 111.98580900000000327 111.89290599999999642 111.82192200000000071 111.7480160000000069 111.60715500000000588 111.61929299999999898 111.44768500000000699 110.82108300000000156 110.49718500000000176 110.21107499999999391 109.89372299999999427 108.86451700000000642 108.7226179999999971 108.42752099999999871 107.90145900000000267 107.11017599999999561 107.14305099999999982 107.06540699999999333 106.6438140000000061 106.49921399999999494 106.4719999999999942 106.4719999999999942 106.47771500000000344 106.63593299999999431 106.83811199999999531 107.50556199999999762 107.51533499999999322 107.05318499999999915 106.5317229999999995 104.84676399999999319 103.73072100000000262 101.69998200000000566 99.830260999999993032 97.688338999999999146 91.628754000000000701 90.714241000000001236 89.957252999999994358 89.091781999999994923 88.325980999999998744 87.722862000000006333 86.65513599999999883 84.819427000000004568 80.907409999999998718 76.678000999999994747 76.678000999999994747 76.602737000000004741 76.603683000000003744 76.606528999999994767 76.609375 76.609375 76.609375 76.609375 76.609375 76.609375 76.682998999999995249 76.68431900000000212 78.031638999999998418 81.017821999999995342 82.257644999999996571 83.897857999999999379 85.518600000000006389 87.122864000000006968 88.517501999999993245 88.898994000000001847 88.802436999999997624 88.486442999999994186 88.021805000000000518 87.640945000000002096 87.919914000000005672 88.141097999999999502 88.339577000000005569 88.191558999999998036 88.283257000000006087 88.384285000000005539 88.645020000000002369 88.878601000000003296 89.221175999999999817 89.332931999999999562 89.461517000000000621 89.471999999999994202 89.428825000000003342 88.957297999999994431 89.342010000000001924 89.751778000000001612 90.231361000000006811 91.134917999999998983 91.130966000000000804 91.135009999999994079 92.013823999999999614
111.27994499999999789 111.32659099999999341 111.36726400000000581 111.4554289999999952 111.46599600000000407 111.49078400000000499 111.7235639999999961 112.09576400000000262 112.39105999999999597 112.48302499999999782 112.59364300000000014 112.71372200000000419 112.3376920000000041 112.0223620000000011 111.68435700000000566 110.930176000000003 110.60866500000000201 109.51110099999999647 108.8498079999999959 108.60486600000000124 108.47276300000000049 108.10443100000000527 107.39255500000000154 107.41503099999999904 107.34543600000000652 107.03227200000000607 106.49961100000000158 106.50988800000000367 106.50972000000000151 106.49247699999999384 106.50901799999999753 106.85285199999999861 107.26977499999999566 107.46665199999999629 107.12959299999999985 106.97655500000000472 105.73637399999999786 105.08914900000000614 103.675422999999995 102.05262799999999856 98.098029999999994288 96.578033000000004904 92.76884499999999889 92.091742999999993913 90.863219999999998322 88.799751000000000545 87.93533299999999997 86.631148999999993521 85.110207000000002608 83.17179899999999293 77.816032000000006974 76.678000999999994747 76.684997999999993112 76.603683000000003744 76.608429000000000997 76.609375 76.61127500000000623 76.61127500000000623 76.61127500000000623 76.61127500000000623 76.61127500000000623 76.61127500000000623 76.682998999999995249 76.747742000000002349 79.419730999999998744 81.291634000000001947 82.896561000000005492 84.616684000000006449 86.9349899999999991 88.480643999999998073 89.034926999999996156 88.947990000000004329 88.566451999999998179 87.901779000000004771 87.735969999999994684 88.073059000000000651 88.406409999999993943 88.706931999999994787 89.034332000000006246 89.038505999999998153 88.892212000000000671 89.027350999999995906 89.193375000000003183 89.235245000000006144 89.305817000000004668 89.440574999999995498 89.459998999999996272 89.207306000000002655 88.925110000000003652 89.006186999999997056 89.48696099999999376 89.942786999999995601 90.784294000000002711 90.823143000000001734 90.801040999999997894 91.009842000000006124
111.38727599999999995 111.44546499999999867 111.4639360000000039 111.46678900000000567 111.46699499999999716 111.47853899999999783 111.70954899999999554 112.41863299999999981 112.46376800000000173 112.51440399999999897 112.73521399999999915 112.9143449999999973 112.61113000000000284 112.30228400000000022 112.00690500000000327 111.71770499999999515 110.50994099999999776 109.74908399999999631 109.03797099999999887 108.75827800000000423 108.77919799999999384 107.91993700000000445 107.67665900000000079 107.68225900000000195 107.63420100000000446 106.97248799999999846 106.838050999999993 106.6491929999999968 106.62871599999999717 106.5521930000000026 106.63268999999999664 106.88659699999999475 107.2431179999999955 107.59069100000000674 107.61489899999999409 107.81569700000000012 107.82687400000000366 107.79966000000000292 105.69292400000000498 102.91705299999999568 100.3607939999999985 98.976318000000006236 97.812377999999995382 94.604607000000001449 91.607330000000004588 90.059867999999994481 88.801902999999995814 87.365516999999996983 85.409812999999999761 82.550078999999996654 79.064460999999994328 76.678000999999994747 76.684997999999993112 76.606528999999994767 76.608429000000000997 76.609375 76.61127500000000623 76.613174000000000774 76.613174000000000774 76.613174000000000774 76.613174000000000774 76.613174000000000774 76.613174000000000774 76.682998999999995249 76.682998999999995249 79.56294300000000419 81.934348999999997432 84.889747999999997319 85.967926000000005615 87.361000000000004206 88.992767000000000621 88.969741999999996551 88.363770000000002369 88.210151999999993677 88.224136000000001445 88.20053900000000624 88.479361999999994737 88.872390999999993255 88.887077000000005 88.837822000000002731 88.778037999999995122 89.029739000000006399 88.992187999999998738 88.96909300000000087 89.02116399999999885 89.115493999999998209 89.420967000000004532 89.310210999999995352 89.142493999999999232 89.244445999999996388 89.708870000000004552 90.417243999999996618 90.815963999999993916 90.896172000000007074 90.843788000000003535 91.041847000000004186
111.30355799999999533 111.46699499999999716 111.46699499999999716 111.46699499999999716 111.46699499999999716 111.46599600000000407 112.06763499999999567 112.40068100000000584 112.46599600000000407 112.48091100000000608 112.59429199999999582 112.71947500000000275 112.6310579999999959 112.40740999999999872 112.21663700000000574 111.68553900000000567 111.18793499999999597 110.03546099999999797 109.31780200000000036 109.0141749999999945 108.9216080000000062 108.57438700000000154 108.2598650000000049 107.94425999999999988 107.92830700000000377 107.28411099999999578 107.11032899999999302 107.14669000000000665 106.82634000000000185 106.56449100000000385 106.72993499999999756 107.08252000000000237 107.71463799999999367 107.98681600000000458 108.52062200000000303 108.65965300000000582 108.67556799999999839 108.92755099999999402 109.54431900000000155 105.72090099999999779 103.35349999999999682 101.21225699999999392 99.976844999999997299 95.518912999999997737 92.489852999999996541 90.949485999999993169 89.005263999999996827 87.403594999999995707 85.212401999999997315 84.453498999999993657 80.766250999999996907 78.586617000000003941 76.684997999999993112 76.683998000000002548 76.608429000000000997 76.609375 76.61127500000000623 76.613174000000000774 76.613174000000000774 76.616020000000006007 76.613174000000000774 76.613174000000000774 76.613174000000000774 76.682998999999995249 76.682998999999995249 76.681999000000004685 79.772368999999997641 83.63740500000000111 84.784462000000004878 86.47166400000000408 88.205566000000004578 88.622765000000001123 88.507034000000004426 88.55767099999999914 88.645210000000005834 88.614777000000003682 88.51767700000000616 88.472412000000005605 88.384247000000002004 88.300467999999995072 88.219161999999997192 88.081092999999995641 88.531563000000005559 88.487433999999993262 88.58201599999999587 89.019088999999993916 89.280663000000004104 89.451179999999993697 89.504043999999993275 89.728606999999996674 90.725516999999996415 91.216689999999999827 91.606414999999998372 91.314528999999993175 91.139656000000002223 90.97323599999999999
111.46699499999999716 111.46699499999999716 111.46699499999999716 111.46714000000000055 111.47468600000000549 111.63045499999999777 112.02140799999999388 112.42304199999999526 112.48366500000000201 112.50255599999999845 112.68190800000000706 112.71515700000000493 112.69292400000000498 112.47975200000000484 112.30027800000000582 112.00970499999999674 111.54240400000000477 110.73779299999999637 109.603675999999993 109.31738300000000663 109.23518400000000383 108.90157299999999907 108.57081599999999355 108.48084299999999303 107.99725300000000061 107.63819900000000018 107.44121599999999717 107.4471589999999992 107.05326100000000622 106.63178999999999519 106.80983000000000516 107.21797200000000316 107.86612700000000586 108.95920599999999467 108.59905200000000036 108.79683699999999646 109.01199300000000392 109.70085899999999413 112.24327900000000113 113.05055199999999616 107.14031199999999444 104.95748100000000136 99.89002999999999588 96.893219000000001984 93.774979000000001861 91.065360999999995784 88.747810000000001196 86.341201999999995564 85.788651000000001545 85.449852000000007024 84.737091000000006602 80.742844000000005167 76.684997999999993112 76.684997999999993112 76.683998000000002548 76.609375 76.613174000000000774 76.613174000000000774 76.616020000000006007 76.616020000000006007 76.61696600000000501 76.616020000000006007 76.616020000000006007 76.616020000000006007 76.682998999999995249 76.682998999999995249 78.143974000000000046 81.939353999999994471 83.56355299999999886 85.771598999999994817 88.811133999999995581 88.358749000000003093 88.547652999999996837 88.825278999999994767 89.117058000000000106 88.797272000000006642 88.481087000000002263 88.15883599999999376 87.97435000000000116 87.925713000000001784 87.768378999999995926 87.704764999999994757 87.642662000000001399 87.984543000000002166 88.47237400000000207 88.787323000000000661 89.084709000000003698 89.360625999999996338 89.693413000000006718 90.393874999999994202 90.811797999999996023 91.177689000000000874 91.560035999999996648 91.648169999999993252 91.088272000000003459 90.820258999999992966
111.46350900000000195 111.46699499999999716 111.46699499999999716 111.46699499999999716 111.57183100000000309 111.7543720000000036 112.13367499999999666 112.57666799999999796 112.80884600000000262 112.70196500000000128 112.82906300000000499 112.9584119999999956 113.04254899999999395 113.08776899999999443 112.60236399999999435 112.33174099999999385 111.91596199999999328 111.21196000000000481 109.94239000000000317 109.5856019999999944 109.53937500000000682 109.23998299999999517 108.88151600000000485 108.78253200000000334 108.6973650000000049 108.04940000000000566 107.848243999999994 107.80175800000000663 107.36493699999999762 107.01569399999999632 106.89389799999999298 107.29027600000000575 108.57319599999999582 108.94398499999999785 108.80579400000000589 108.47534199999999771 108.67974100000000703 111.40340399999999477 113.07836899999999503 113.97274000000000171 114.16838099999999656 108.86229699999999809 102.44264200000000642 99.547234000000003107 96.247992999999993913 92.672081000000005702 86.987258999999994558 86.806197999999994863 86.64773599999999476 86.486007999999998219 86.184700000000006526 84.786224000000004253 78.723281999999997538 76.684997999999993112 76.683998000000002548 76.61127500000000623 76.613174000000000774 76.613174000000000774 76.616020000000006007 76.61696600000000501 76.61696600000000501 76.61696600000000501 76.61696600000000501 76.61696600000000501 76.61696600000000501 76.681999000000004685 76.709961000000006948 78.363983000000004608 82.300087000000004878 87.430572999999995432 88.728522999999995591 88.665954999999996744 88.730063999999998714 89.070801000000003 89.827652000000000498 89.688179000000005203 89.443229999999999791 88.975243000000006077 88.614234999999993647 87.884865000000004898 87.768127000000006888 87.581374999999994202 87.478935000000006994 87.71493499999999699 88.236037999999993531 88.583861999999996328 88.802916999999993664 88.964561000000003332 89.701965000000001282 90.280158999999997604 90.646407999999993876 90.605614000000002761 90.48548900000000117 89.595444000000000528 89.297934999999995398 90.18629500000000121
111.44971499999999764 111.46699499999999716 111.46699499999999716 111.5133819999999929 111.67473599999999578 111.94609800000000632 112.33349599999999668 112.80123899999999537 113.12197100000000205 113.24056199999999706 113.19981400000000349 113.43239599999999712 113.56892399999999554 113.53745999999999583 113.29882800000000032 112.66197999999999979 112.27546700000000612 110.84287999999999386 110.26190900000000283 110.11047399999999641 110.12020099999999445 109.5751419999999996 109.01550299999999538 109.04718800000000556 109.03374499999999614 108.93923999999999808 108.29445599999999672 107.98621400000000392 107.66510800000000359 107.33313800000000526 107.22735600000000034 107.73419199999999307 108.38656600000000196 108.77423100000000034 108.70510099999999909 108.53499600000000669 108.57277700000000209 111.08122299999999427 112.94646500000000344 113.73562599999999634 113.9163819999999987 110.95588700000000415 105.08956100000000333 102.29357899999999404 98.668548999999998728 92.286384999999995671 90.887566000000006738 89.215407999999996491 87.514893000000000711 87.477547000000001276 87.144256999999996083 86.266784999999998718 84.391609000000002538 78.552879000000004339 76.683998000000002548 76.683998000000002548 76.613174000000000774 76.613174000000000774 76.616020000000006007 76.61696600000000501 76.617919999999998026 76.617919999999998026 76.617919999999998026 76.617919999999998026 76.61696600000000501 76.681999000000004685 76.681999000000004685 76.830726999999995996 78.839493000000004486 86.642280999999996993 88.063004000000006499 88.42979400000000112 88.702652000000000498 90.344809999999995398 90.373856000000003519 90.336876000000003728 90.126098999999996408 89.719734000000002538 89.127273999999999887 88.869072000000002731 88.000129999999998631 87.646186999999997624 87.474823000000000661 87.660949999999999704 88.066353000000006546 88.434882999999999242 88.504470999999995229 88.877494999999996139 88.975380000000001246 88.9120410000000021 88.41416900000000112 89.445137000000002558 88.631943000000006805 88.310744999999997162 88.046363999999996963 87.95933499999999583
111.41869400000000212 111.44300800000000606 111.37998199999999827 111.38585700000000145 111.60875699999999711 111.97850800000000504 112.46986400000000117 113.22911799999999971 113.28067799999999465 113.37025500000000022 113.68296800000000246 113.87543499999999597 114.05834199999999612 113.89577500000000043 113.55810499999999763 113.18927800000000161 112.07582899999999881 111.30020100000000127 110.59994500000000528 110.38048600000000476 110.40943099999999788 109.83740199999999732 109.30267299999999864 109.31538399999999456 109.34677899999999795 109.35899399999999559 108.65341899999999953 108.10191299999999615 107.68710299999999336 107.42974900000000105 107.5531079999999946 107.62818099999999788 107.80805999999999756 108.55186500000000649 108.66465800000000286 108.42852000000000601 108.76159699999999475 109.59588599999999303 112.02861000000000047 112.8448099999999954 113.23681600000000458 112.12678499999999815 109.94679999999999609 104.98318500000000597 99.022971999999995774 96.020911999999995601 93.760254000000003316 92.327324000000004389 91.623642000000003804 88.870277000000001522 88.258674999999996658 87.32277700000000209 85.38060000000000116 83.091812000000004446 76.683998000000002548 76.682998999999995249 76.682998999999995249 76.613174000000000774 76.61696600000000501 76.61696600000000501 76.617919999999998026 76.617919999999998026 76.61886599999999703 76.61886599999999703 76.61886599999999703 76.617919999999998026 76.681999000000004685 76.680999999999997385 78.921317999999999415 81.149390999999994278 86.370025999999995747 87.16401700000000119 88.971123000000005732 90.046126999999998475 90.89833099999999888 90.97772199999999998 90.5924839999999989 90.014022999999994568 89.684464000000005512 89.343947999999997478 88.80630499999999472 87.845366999999995983 87.480971999999994182 87.603531000000003814 87.940758000000002426 88.180999999999997385 88.052672999999998638 88.02755000000000507 87.856773000000004004 87.579589999999996053 87.21945999999999799 86.988144000000005462 87.552978999999993448 87.34842700000000093 87.269608000000005177 87.445167999999995345
110.08291599999999733 110.93209799999999632 110.73244499999999846 110.87465699999999913 111.15188600000000463 111.52706100000000333 112.53479000000000099 113.1898570000000035 113.2384490000000028 113.27288099999999815 113.55054499999999962 114.12206999999999368 114.21955900000000383 114.01856999999999687 113.60662800000000061 113.18766800000000217 112.48078900000000147 111.65333599999999592 110.93527199999999766 110.64916200000000401 110.53687999999999647 110.16503099999999904 109.88223299999999938 109.58360299999999654 109.63691699999999685 109.60920699999999783 108.99017299999999864 108.30023199999999406 107.64221200000000067 107.51935600000000193 108.13339200000000062 107.78610199999999963 107.58897399999999323 108.0081480000000056 108.38692500000000507 108.35040300000000002 108.66674000000000433 109.32071700000000192 110.29430399999999679 112.54943099999999845 113.02845800000000054 112.73274999999999579 111.44843299999999431 110.7053149999999988 103.04553199999999435 100.65177900000000477 98.102135000000004084 96.688828000000000884 93.198966999999996119 91.507384999999999309 89.35893199999999581 88.212310999999999694 86.043334999999999013 81.069618000000005509 78.605971999999994182 76.682998999999995249 76.682998999999995249 76.682998999999995249 76.61696600000000501 76.61696600000000501 76.617919999999998026 76.61886599999999703 76.621712000000002263 76.621712000000002263 76.621712000000002263 76.621712000000002263 76.61886599999999703 76.680999999999997385 76.680999999999997385 78.627289000000004648 80.711226999999993836 85.23067500000000507 87.43895700000000204 88.675185999999996511 89.975409999999996558 90.344429000000005203 90.274887000000006765 90.2006149999999991 89.917336000000005924 89.58814999999999884 89.074653999999995335 87.863479999999995584 87.529015000000001123 87.556160000000005539 87.735268000000004918 87.861457999999998947 87.322021000000006552 87.295860000000004675 86.996834000000006881 86.700126999999994837 86.556197999999994863 86.783173000000005004 86.973129000000000133 87.049248000000005732 87.111778000000001043 87.245429999999998927
109.44028500000000292 108.99825300000000539 109.83426699999999698 110.22115300000000104 110.57278399999999863 111.43358600000000536 112.06290400000000318 112.59060700000000566 113.03173800000000426 113.02493300000000431 113.64942899999999781 113.85427099999999712 113.82965099999999836 113.91082000000000107 113.48699999999999477 112.76130700000000218 112.51097099999999784 112.08715100000000575 111.51722700000000543 110.97304499999999905 110.86261000000000365 110.50893399999999644 110.18164799999999559 110.11107599999999707 110.08670800000000156 110.23275800000000402 109.92660499999999502 109.32584400000000358 109.03765099999999677 108.65226699999999482 108.92002100000000553 108.45770299999999509 107.75836200000000531 106.69206200000000706 106.59914399999999546 107.95556600000000458 108.08351899999999546 108.64064799999999877 110.20521499999999548 111.23273500000000524 112.88903799999999933 113.06848100000000557 112.45375799999999344 112.15358000000000516 111.25912499999999739 109.56999999999999318 103.04910999999999888 98.263542000000001053 95.579528999999993744 93.531029000000003748 91.517685000000000173 88.788505999999998153 83.775245999999995661 81.443375000000003183 79.530060000000005971 77.911681999999998993 76.682998999999995249 76.682998999999995249 76.61696600000000501 76.61696600000000501 76.617919999999998026 76.621712000000002263 76.621712000000002263 76.621712000000002263 76.621712000000002263 76.621712000000002263 76.621712000000002263 76.680999999999997385 76.680999999999997385 76.700630000000003861 78.486343000000005077 82.708884999999995102 85.46183000000000618 86.639938000000000784 87.869026000000005183 88.745804000000006795 89.059441000000006738 89.525513000000003672 89.911422999999999206 89.63502499999999884 88.638808999999994853 88.133255000000005452 87.827797000000003891 87.530563000000000784 87.510634999999993511 87.304726000000002273 87.020729000000002884 86.804512000000002558 86.623894000000007054 86.48699999999999477 86.511688000000006582 86.651627000000004841 86.798118999999999801 86.840362999999996418 87.028075999999998658 86.981223999999997432
108.86927799999999422 108.84435299999999813 109.02420800000000156 109.39662900000000434 110.07459299999999303 110.9419330000000059 111.67571999999999832 112.327147999999994 112.61330399999999941 112.93422700000000702 113.28268400000000327 113.48343699999999501 113.40069599999999639 113.22984300000000246 112.81067699999999832 112.56131700000000251 112.41208600000000217 112.07447799999999916 111.54005399999999781 111.15829499999999541 111.1008070000000032 110.79726399999999842 110.46995499999999879 110.42842100000000016 110.64431000000000438 110.74036399999999958 110.84571099999999433 110.69041400000000408 110.85951199999999517 110.67618600000000129 110.24272200000000055 109.20925099999999475 108.32395200000000557 105.60565900000000283 105.6597370000000069 106.07399700000000564 107.19763899999999524 108.43907900000000666 109.27042400000000555 110.23215500000000588 111.7357939999999985 113.13751999999999498 112.8751749999999987 113.03353099999999642 113.06364399999999648 112.65737900000000593 111.08478499999999656 101.80333699999999908 98.708374000000006276 95.271889000000001602 92.051322999999996455 86.904799999999994498 84.355277999999998428 82.109488999999996395 80.389815999999996166 79.028503000000000611 76.901275999999995747 76.682998999999995249 76.681999000000004685 76.61696600000000501 76.617919999999998026 76.621712000000002263 76.621712000000002263 76.621712000000002263 76.623610999999996807 76.623610999999996807 76.623610999999996807 76.623610999999996807 76.680999999999997385 76.680999999999997385 78.320885000000004084 79.694625999999999522 80.929535000000001332 80.772491000000002259 84.729789999999994166 86.216376999999994268 87.32409699999999475 88.28816999999999382 89.102669000000005894 89.308753999999993312 88.876983999999993102 88.452033999999997604 88.07026700000000119 87.660629000000000133 87.090751999999994837 86.875686999999999216 86.676154999999994288 86.577950000000001296 86.53446999999999889 86.504661999999996169 86.481560000000001764 86.502555999999998448 86.517241999999995983 86.406586000000004333 86.41384100000000501 86.710517999999993322
108.80862399999999468 108.80036900000000344 108.96334799999999632 109.34773300000000518 110.23932600000000548 110.69667099999999493 111.535743999999994 112.26275599999999599 112.58352700000000368 112.48613699999999938 112.86588299999999663 112.8955919999999935 112.63882399999999961 112.16485600000000034 111.84345999999999322 112.20669599999999377 112.03672799999999654 111.76749399999999923 110.86993400000000065 110.74884000000000128 110.77227000000000601 110.91120899999999949 110.64985699999999724 110.68985000000000696 110.85002099999999814 111.17057800000000611 111.31619999999999493 111.40948500000000365 111.32594299999999521 111.13454400000000533 110.51173400000000413 109.72629499999999325 107.52983899999999551 106.03919199999999989 106.03821600000000558 106.36240399999999795 107.29373200000000566 107.857451999999995 108.50649300000000608 109.3349759999999975 110.72902700000000209 112.67179099999999892 113.03521700000000294 113.06088300000000402 113.37220000000000653 113.46920000000000073 110.89561500000000649 108.44676200000000676 101.70365900000000181 97.860129999999998063 90.155518000000000711 87.93240400000000534 86.352608000000003585 83.353881999999998698 81.69041400000000408 79.757750999999998953 78.408180000000001542 76.862449999999995498 76.682998999999995249 76.681999000000004685 76.61886599999999703 76.621712000000002263 76.621712000000002263 76.623610999999996807 76.62455699999999581 76.62455699999999581 76.62455699999999581 76.62455699999999581 76.62455699999999581 76.680999999999997385 76.991134999999999877 77.858603999999999701 78.439605999999997721 77.835250999999999522 78.830864000000005376 83.430458000000001562 84.848656000000005406 86.573218999999994594 88.76278700000000299 89.075180000000003133 89.063941999999997279 88.822158999999999196 88.425017999999994345 87.204453000000000884 86.330787999999998306 85.610847000000006801 86.235870000000005575 86.327286000000000854 86.631423999999995544 86.595427999999998292 86.32772099999999682 86.287109000000000947 85.849318999999994162 85.774055000000004156 85.894561999999993418 85.995086999999998056
108.84155300000000466 108.82804899999999293 108.97791300000000092 110.04405199999999354 110.57792700000000252 111.20482599999999707 111.64649199999999496 112.80246699999999294 112.69799000000000433 112.44181799999999782 111.98195599999999672 112.07354700000000491 111.28075400000000172 111.14048800000000483 110.99940499999999588 110.79994200000000149 110.55158199999999624 110.65191699999999742 110.19544199999999989 110.06570399999999665 110.19412199999999302 110.82860599999999351 110.90599799999999675 110.95601700000000278 111.05802199999999402 111.26452600000000359 111.4719999999999942 111.45819899999999336 111.35322600000000648 111.11035900000000254 110.55966200000000299 109.25811799999999607 108.99662800000000118 107.39797199999999577 107.16543599999999969 107.11437200000000303 107.36419700000000432 107.80256699999999626 108.13827499999999304 108.76826499999999953 111.04962199999999939 111.76676199999999994 112.17266100000000506 112.60509500000000571 113.27432299999999543 113.14314299999999491 111.72460200000000441 109.89501199999999415 106.74899299999999869 95.636345000000005712 91.529289000000005672 89.376166999999995255 88.033691000000004578 87.140808000000006928 83.394774999999995657 82.94018599999999708 81.090896999999998229 79.028969000000003575 76.744231999999996674 76.681999000000004685 76.61886599999999703 76.621712000000002263 76.621712000000002263 76.62455699999999581 76.62645700000000204 76.62645700000000204 76.62645700000000204 76.62645700000000204 76.62645700000000204 76.62645700000000204 76.680000000000006821 76.821274000000002502 77.233315000000004602 77.371452000000005 77.712524000000001934 79.468536000000000286 82.482017999999996505 86.409378000000003794 87.848823999999993362 88.592590000000001282 89.116470000000006735 89.211326999999997156 88.185767999999995936 87.220093000000005645 85.822197000000002731 84.788184999999998581 84.810019999999994411 86.360695000000006871 86.765274000000005117 86.809334000000006881 86.310103999999995494 85.034126000000000545 85.144264000000006831 85.123160999999996079 85.240120000000004552 85.448134999999993511
109.89380599999999788 110.17694099999999935 110.35995499999999936 111.05099500000000035 111.58611299999999744 112.01471700000000453 112.31240099999999416 112.99105799999999533 112.82299799999999834 112.3525240000000025 111.36289200000000221 109.58605199999999513 110.10543099999999583 110.15708200000000261 110.23866300000000251 110.11354799999999443 109.58744799999999486 109.30860099999999591 109.46348600000000317 109.38313300000000083 109.65805100000000039 110.77143100000000686 111.27123299999999517 111.20387300000000153 111.25865899999999442 111.44162799999999436 111.45574200000000076 111.4117430000000013 111.20625300000000379 110.93450199999999484 109.89965100000000575 109.41764100000000326 109.31150100000000691 109.20980099999999879 108.29983500000000163 107.6203610000000026 107.41558100000000309 107.67237099999999828 108.25582099999999741 109.2659450000000021 110.16277300000000139 110.80880700000000161 111.40027600000000518 111.98911300000000324 112.94971499999999764 112.76339000000000112 111.80853299999999706 110.85423299999999358 109.16339100000000428 100.19385499999999922 93.570755000000005452 91.221808999999993262 89.854797000000004914 89.086365000000000691 89.236007999999998219 86.48516100000000506 85.700721999999998957 82.259856999999996674 76.681999000000004685 76.681999000000004685 76.681999000000004685 76.621712000000002263 76.621712000000002263 76.62455699999999581 76.62645700000000204 76.627403000000001043 76.627403000000001043 76.627403000000001043 76.627403000000001043 76.627403000000001043 76.627403000000001043 76.627403000000001043 77.067420999999995956 77.346412999999998306 77.727394000000003871 78.447845000000000937 80.361915999999993687 85.016257999999993444 86.697509999999994079 87.694518999999999664 88.378737999999998465 88.871467999999993026 88.351958999999993694 87.055747999999994136 85.339332999999996332 84.163521000000002914 84.382637000000002558 84.91368900000000508 86.663452000000006592 86.666167999999998983 85.959052999999997269 81.621643000000005941 80.527366999999998143 84.48477900000000318 84.702499000000003093 82.944168000000004781
111.33262600000000475 112.49112700000000586 113.67571300000000178 112.66348999999999592 113.1512299999999982 113.18005399999999838 113.12120799999999576 113.25686600000000226 112.86540200000000311 112.05315400000000636 109.54737099999999828 109.14771299999999599 108.780304000000001 109.40979000000000099 109.60348500000000627 109.50031300000000556 109.31773400000000152 109.07877299999999821 108.91437500000000682 109.08037600000000111 109.97451800000000333 110.71681999999999846 111.30441999999999325 111.46960400000000391 111.44174200000000496 111.45920599999999467 111.41974600000000351 111.31257600000000707 111.05672500000000014 110.19522899999999765 109.97998800000000585 109.67363699999999938 109.65193200000000218 109.74799299999999391 109.26183299999999576 108.1504900000000049 107.69707499999999811 107.67599500000000035 108.97718799999999817 109.34594699999999534 109.72072599999999909 110.04320500000000038 110.51421399999999551 111.92917599999999823 112.41461900000000185 112.21690399999999954 111.56663500000000511 110.90630299999999409 107.05493900000000451 102.35214200000000062 98.624679999999997904 93.307755000000000223 90.609268000000000143 90.77333099999999888 91.599197000000003754 92.393935999999996511 92.586951999999996588 82.698074000000005412 79.372673000000006027 76.681999000000004685 76.681999000000004685 76.681999000000004685 76.623610999999996807 76.62455699999999581 76.62645700000000204 76.627403000000001043 76.628356999999994059 76.628356999999994059 76.628356999999994059 76.628356999999994059 76.628356999999994059 76.628356999999994059 76.680144999999996003 77.10066999999999382 77.479393000000001734 78.340271000000001322 81.216826999999994996 83.012237999999996418 85.483825999999993428 86.43096199999999385 87.398116999999999166 87.608635000000006698 84.991737000000000535 82.594230999999993514 84.840209999999999013 82.110359000000002538 81.70720699999999681 81.263137999999997874 81.315055999999998448 84.694962000000003854 80.872360000000000468 79.178618999999997641 77.920021000000005529 77.064628999999996495 79.495566999999994096 79.412270000000006576
113.15812699999999325 113.87429799999999602 114.97000900000000456 115.76155900000000543 114.76150499999999965 113.90360300000000393 113.6361919999999941 113.40541799999999739 112.59928100000000484 111.58329799999999921 109.08663900000000524 108.7137299999999982 108.49762699999999427 108.51567799999999409 109.0034559999999999 109.2489620000000059 109.09598499999999888 108.94873800000000585 108.98054500000000644 109.67893999999999721 110.01376299999999731 110.70116400000000567 111.27773999999999432 111.4719999999999942 111.4719999999999942 111.4698410000000024 111.37663299999999822 111.15994299999999839 110.41022499999999695 109.98983800000000599 109.91197200000000578 109.92397300000000371 110.07952899999999374 110.20822099999999466 109.99914599999999609 109.77131699999999626 108.26779899999999657 108.11840100000000575 109.29520399999999825 109.53421000000000163 109.38652000000000442 109.25797300000000689 110.15734899999999641 110.66393300000000011 111.08177200000000084 111.08785199999999804 110.72881300000000238 110.08106200000000285 108.16191100000000347 103.69495399999999563 99.776748999999995249 96.261284000000003402 91.713645999999997116 91.688004000000006499 92.427620000000004552 93.398537000000004582 92.375549000000006572 89.179091999999997142 82.324768000000005941 79.429519999999996571 77.701590999999993414 76.681999000000004685 76.681999000000004685 76.62455699999999581 76.62645700000000204 76.627403000000001043 76.628356999999994059 76.628356999999994059 76.629302999999993062 76.629302999999993062 76.629302999999993062 76.629302999999993062 76.629302999999993062 76.680000000000006821 77.323677000000003545 78.616425000000006662 79.709412000000000376 80.560867000000001781 80.710967999999994049 85.152389999999996917 84.908103999999994471 84.293480000000002406 82.500495999999998276 80.795067000000003077 76.671997000000004618 81.06204200000000526 80.170997999999997319 79.06507100000000321 78.052895000000006576 76.718734999999995239 77.84445999999999799 76.677002000000001658 76.677002000000001658 76.677002000000001658 76.676002999999994358 76.676002999999994358
114.17561299999999846 114.82942199999999389 115.5429149999999936 116.52477299999999616 116.16326899999999966 114.79921699999999873 114.23056800000000521 113.64218099999999367 112.70666500000000099 110.01851700000000278 108.96067800000000148 108.38703900000000147 108.18302900000000477 108.32730100000000562 108.55757099999999582 108.66114000000000317 108.81609299999999507 108.85223399999999572 109.46541600000000471 109.90501399999999421 110.37271099999999535 110.756377999999998 111.27518499999999335 111.50229600000000119 111.52144599999999741 111.57313499999999351 111.52225500000000125 110.75232699999999397 110.28948200000000668 109.88794699999999693 109.89444699999999955 110.21565999999999974 110.93168599999999913 111.14225799999999822 111.20885499999999979 111.24668900000000349 111.25405899999999804 109.36027500000000146 109.82846800000000087 109.83541099999999346 109.31478099999999642 108.79363299999999981 108.83013200000000609 109.44691500000000417 109.63141600000000153 109.74842099999999334 109.4642029999999977 109.36946899999999516 108.58415200000000311 104.81204999999999927 100.76843999999999824 94.23504599999999698 92.58029200000000003 92.005134999999995671 92.405570999999994797 93.76693000000000211 92.571135999999995647 90.324982000000005655 86.757369999999994548 82.487082999999998378 77.660347000000001572 76.681999000000004685 76.681999000000004685 76.681999000000004685 76.62645700000000204 76.627403000000001043 76.628356999999994059 76.629302999999993062 76.632148999999998296 76.63404800000000705 76.632148999999998296 76.632148999999998296 76.632148999999998296 76.632148999999998296 76.680000000000006821 77.5809019999999947 79.467399999999997817 78.386977999999999156 78.578216999999995096 76.956596000000004665 84.276595999999997844 82.995627999999996405 81.319855000000003997 76.671997000000004618 76.671997000000004618 76.671997000000004618 76.670997999999997319 76.670997999999997319 76.677002000000001658 76.677002000000001658 76.677002000000001658 76.677002000000001658 76.677002000000001658 76.676002999999994358 77.19785299999999495 77.434157999999996491
114.73388699999999574 115.29143500000000699 115.91619900000000598 116.74454500000000223 116.39586599999999805 115.80244399999999416 114.77454400000000589 113.930176000000003 111.74401899999999443 110.47367900000000418 109.56644400000000417 108.32949100000000442 108.06546799999999564 108.28649900000000628 108.4590910000000008 108.55366499999999519 108.66573300000000302 109.24836000000000524 109.76079599999999914 110.20838899999999683 110.60058600000000695 111.03829199999999844 111.59817499999999768 111.63346900000000517 111.68679000000000201 111.81890099999999677 111.73247499999999377 111.41162900000000491 110.41784699999999475 109.97553299999999865 109.94255800000000534 110.91796899999999937 111.65333599999999592 111.9868850000000009 112.19704400000000533 112.24591800000000319 112.11366999999999905 111.72581499999999721 110.55758699999999806 110.12991300000000194 108.87750200000000689 108.7828140000000019 108.82002300000000616 108.91311600000000226 109.02197300000000268 108.70381899999999575 108.73010999999999626 108.71163900000000524 107.39343999999999824 105.40725700000000131 97.845871000000002482 94.64470699999999681 92.859656999999998561 92.53936000000000206 92.657875000000004206 93.282607999999996196 92.486168000000006373 90.498397999999994568 87.710769999999996571 82.353888999999995235 78.857956000000001495 77.493979999999993424 76.681999000000004685 76.681999000000004685 76.627403000000001043 76.627403000000001043 76.628356999999994059 76.629302999999993062 76.63404800000000705 76.63404800000000705 76.634995000000003529 76.63404800000000705 76.63404800000000705 76.63404800000000705 76.680000000000006821 76.680000000000006821 76.672996999999995182 76.672996999999995182 76.672996999999995182 76.672996999999995182 77.605446000000000595 78.52994499999999789 78.422629999999998063 77.5682910000000021 77.451035000000004516 77.781891000000001668 78.140038000000004104 76.670997999999997319 76.670997999999997319 76.677002000000001658 76.677002000000001658 76.677002000000001658 76.792557000000002176 77.190826000000001272 77.917075999999994451 79.969299000000006572
115.01611300000000426 115.54266400000000203 116.50461599999999862 116.76752500000000623 116.53848299999999938 115.88925199999999904 115.21992500000000348 113.20952599999999677 112.25853700000000401 111.21539300000000594 110.29640999999999451 109.70636700000000019 109.12170399999999404 108.6107939999999985 108.5776209999999935 108.57028999999999996 109.13585700000000145 109.94561799999999607 110.15234399999999937 110.59252899999999897 110.85613299999999981 111.70394100000000037 112.03791800000000478 111.84787000000000035 111.93277700000000152 112.1637800000000027 112.48960099999999329 112.17815400000000636 111.67787900000000434 110.28033399999999631 110.53539999999999566 111.07417300000000182 111.71292099999999436 112.26791400000000465 112.47000099999999634 112.39495800000000258 112.16315500000000327 111.71698000000000661 111.08831000000000699 110.47000099999999634 109.08053599999999506 108.91249799999999937 108.94153599999999926 109.1394729999999953 109.40303000000000111 108.50429499999999905 108.08424399999999821 107.65898099999999715 106.71456899999999735 101.07627100000000553 98.263664000000005672 94.783248999999997864 93.148087000000003854 92.694121999999993022 92.385925000000000296 92.257744000000002416 92.265929999999997335 90.330359999999998877 85.567192000000005692 83.160888999999997395 80.857117000000002349 78.294601000000000113 77.217742999999998688 76.681999000000004685 76.681999000000004685 76.627403000000001043 76.628356999999994059 76.629302999999993062 76.63404800000000705 76.634995000000003529 76.634995000000003529 76.638785999999996079 76.634995000000003529 76.634995000000003529 76.634995000000003529 76.680000000000006821 76.672996999999995182 76.788826000000000249 77.081328999999996654 77.930779000000001133 79.311736999999993714 82.004990000000006489 83.246330000000000382 77.97409799999999791 79.028496000000004074 80.191620000000000346 82.474059999999994375 83.342704999999995152 78.400475000000000136 77.815346000000005233 76.677002000000001658 76.677002000000001658 76.677002000000001658 77.108001999999999043 78.206435999999996511 79.204147000000006074
115.34624499999999614 116.15685999999999467 116.5905609999999939 116.85637699999999484 116.69066599999999312 115.98264299999999594 114.47842400000000396 113.62483199999999783 112.70812200000000303 112.0143810000000002 111.1732939999999985 110.15428900000000567 109.95310999999999524 109.79163400000000195 108.90763900000000319 108.87710599999999772 109.45533000000000357 110.5240399999999994 111.38816799999999319 111.05938700000000097 111.47460900000000095 111.92691000000000656 112.28165400000000318 112.41794600000000059 112.53056300000000078 113.0622939999999943 113.10879500000000064 112.73214000000000112 112.16882300000000328 110.69724300000000028 110.72072599999999909 111.2131650000000036 111.71439399999999864 112.16854899999999873 112.37679300000000637 112.30885299999999916 112.01354200000000105 111.64916200000000401 111.16988399999999615 110.08213000000000648 109.79201500000000635 109.24582700000000557 109.36796599999999557 110.10434700000000419 110.17929800000000284 109.61825600000000236 108.03273000000000081 107.04570800000000474 103.73271200000000647 100.77378799999999615 97.612540999999993119 94.894035000000002356 93.387962000000001694 92.524642999999997528 92.197342000000006124 91.905754000000001724 91.336555000000004156 88.163864000000003784 86.166649000000006708 83.873633999999995581 81.663291999999998438 79.517173999999997136 77.092751000000006911 76.823668999999995322 76.681999000000004685 76.680999999999997385 76.628356999999994059 76.632148999999998296 76.63404800000000705 76.634995000000003529 76.634995000000003529 76.640686000000002309 76.640686000000002309 76.638785999999996079 76.638785999999996079 76.638785999999996079 76.672996999999995182 77.174025999999997794 76.969238000000004263 78.914351999999993836 82.830742000000000758 83.316147000000000844 83.259331000000003087 83.288025000000004638 83.455055000000001542 84.042320000000003688 84.169334000000006313 84.379822000000004323 84.766746999999995182 80.557250999999993724 78.505218999999996754 77.864104999999995016 77.405151000000003592 77.633071999999998525 78.327140999999997462 80.394310000000004379
115.67304199999999526 116.26682300000000225 116.55097999999999558 116.75927699999999732 116.77271299999999599 115.37340500000000532 114.60431699999999466 113.87538100000000441 113.454102000000006 112.62096400000000074 111.4138719999999978 111.04192399999999452 110.69310799999999517 110.42879499999999382 109.75964399999999443 109.06131000000000597 109.83891300000000513 111.05619000000000085 111.93391400000000147 112.11504399999999748 111.78988599999999565 112.1804960000000051 112.53665900000000022 112.740752999999998 113.49298100000000034 113.88130999999999915 113.52914400000000228 113.1264189999999985 112.51315300000000263 110.97917200000000548 110.99763500000000249 111.31037100000000351 111.66105699999999956 112.08576200000000256 112.14772000000000673 112.16011000000000308 112.0268169999999941 111.7412570000000045 110.85581999999999425 110.56265999999999394 110.47251099999999724 110.71614099999999326 110.07933800000000701 111.04661600000000021 111.31738300000000663 110.80599999999999739 110.18641700000000583 105.69628099999999904 103.50228099999999642 100.8221589999999992 97.944732999999999379 95.38389599999999291 93.047943000000003622 92.576828000000006114 92.105247000000005642 91.640952999999996109 91.060401999999996292 88.823441000000002532 86.779517999999995936 84.794196999999996933 82.791167999999998983 78.99954200000000526 78.045653999999998973 77.208800999999994019 76.985923999999997136 76.681999000000004685 76.629302999999993062 76.632148999999998296 76.63404800000000705 76.634995000000003529 76.636893999999998073 76.638785999999996079 76.640686000000002309 76.640686000000002309 76.640686000000002309 76.640686000000002309 76.640686000000002309 77.029708999999996877 77.818000999999995315 79.038634999999999309 82.325034999999999741 82.774856999999997242 82.872107999999997219 82.988547999999994431 83.326865999999995438 84.228133999999997172 84.423820000000006303 84.753272999999992976 85.332976999999999634 85.311156999999994355 84.175644000000005462 78.037497999999999365 78.774749999999997385 79.601173000000002844 79.220534999999998149 78.486487999999994258
116.09018700000000024 116.34624499999999614 116.46575900000000559 116.41866299999999512 115.84768699999999342 115.41793099999999583 114.76752500000000623 114.17368299999999692 113.84491699999999526 113.46031999999999584 113.09740399999999738 111.90705099999999561 111.2775270000000063 110.83027599999999779 109.48251299999999731 109.60931399999999769 110.25794999999999391 111.35973400000000311 112.52822899999999606 112.63426200000000676 112.71327999999999747 112.50358599999999853 112.8186110000000042 113.38088999999999373 113.84036999999999296 114.32313499999999351 114.45449800000000096 113.49884000000000128 112.10867299999999602 111.31505599999999845 111.16234599999999944 111.35539199999999482 111.59664200000000278 111.63098899999999958 111.73796799999999507 111.92268400000000383 112.2143169999999941 112.37114699999999345 111.36381500000000244 111.29615800000000547 111.46791100000000085 111.81076000000000192 112.84762600000000532 112.19139099999999587 112.48395499999999458 111.93402899999999534 109.94541200000000458 107.86994199999999466 104.50202899999999318 101.2328109999999981 98.384963999999996531 94.099045000000003824 93.164565999999993551 92.743431000000001063 92.112869000000003439 91.505782999999993876 90.024292000000002645 89.180762999999998897 88.31512499999999477 86.009720000000001505 82.401786999999998784 80.905272999999993999 80.069869999999994548 79.630356000000006134 79.41876999999999498 77.109763999999998418 76.680999999999997385 76.63404800000000705 76.63404800000000705 76.634995000000003529 76.638785999999996079 76.640686000000002309 76.638785999999996079 76.640686000000002309 76.642585999999994328 76.640686000000002309 76.640686000000002309 76.640686000000002309 76.672996999999995182 78.673514999999994757 79.916839999999993438 81.769852000000000203 82.055458000000001562 82.318375000000003183 83.385513000000003103 83.999686999999994441 84.596862999999999033 85.071433999999996445 86.422836000000003764 86.126434000000003266 85.439757999999997651 84.010300000000000864 83.302856000000005565 82.501236000000005788 81.906433000000006928 80.531006000000004974
116.36038999999999533 116.37836500000000228 116.37619800000000225 116.15889699999999607 115.67000600000000077 115.47430400000000361 114.98407000000000266 114.47083999999999548 114.13238499999999931 113.9800029999999964 113.6857830000000007 113.23005700000000218 111.84822099999999523 110.68216700000000685 109.91009499999999832 109.919951999999995 110.65013100000000179 111.45127100000000553 112.76171899999999937 112.98291799999999796 113.04765299999999684 113.16061399999999537 113.53528599999999926 113.72409100000000137 114.10948199999999986 114.58838699999999733 114.75464599999999393 113.47965999999999553 112.4506149999999991 111.68154099999999573 111.39302800000000104 111.48600799999999822 111.27448300000000359 111.20735899999999674 111.41980700000000581 111.75687399999999627 112.84408600000000433 113.09855699999999956 113.11038999999999533 112.22054300000000637 112.46626999999999441 113.33902000000000498 113.80176500000000317 113.96558400000000688 113.35508000000000095 111.74602500000000305 110.22873699999999531 108.0788040000000052 105.24565099999999518 101.93284599999999784 96.211562999999998169 94.518287999999998306 93.495163000000005127 93.302963000000005422 92.772414999999995189 90.75818599999999492 90.03961200000000531 89.449562000000000239 88.94336699999999496 87.662102000000004409 84.927711000000002173 83.686745000000001937 83.037047999999998638 82.500893000000004918 81.28211199999999792 80.393471000000005233 77.491523999999998296 76.689368999999999232 76.680999999999997385 76.636893999999998073 76.638785999999996079 76.640686000000002309 76.640686000000002309 76.642585999999994328 76.645431999999999562 76.645431999999999562 76.642585999999994328 76.642585999999994328 76.672996999999995182 77.48575599999999497 78.262275999999999954 79.127173999999996568 81.057945000000003688 81.9815980000000053 82.716353999999995494 83.518776000000002568 84.268142999999994913 86.126121999999995182 86.974425999999994019 86.928284000000004994 86.147071999999994318 85.38053899999999885 83.895409000000000788 82.870925999999997202 82.286972000000005778 81.681472999999996887
116.43367000000000644 116.46456100000000333 116.37087999999999965 115.79202300000000037 115.62718200000000479 115.50320399999999665 115.21506499999999562 114.51007099999999639 114.39781200000000183 114.31965599999999483 114.12723499999999888 113.87708299999999895 112.173798000000005 110.96826900000000649 110.29692099999999755 110.22426600000000008 110.8485639999999961 111.87654100000000312 112.70541400000000465 112.88465100000000518 112.99929000000000201 113.31075300000000539 113.51893599999999651 113.69507600000000025 114.16083500000000583 114.41751899999999864 113.94475599999999815 113.45641299999999774 112.89012900000000172 112.06375900000000456 111.74021899999999619 111.78311200000000269 111.63027999999999906 111.47944599999999582 111.35665099999999939 112.3365399999999994 113.06605500000000575 113.56694799999999645 113.64978800000000092 113.68443299999999851 113.35785699999999565 113.88037900000000491 114.23891399999999408 114.33875999999999351 114.4312670000000054 112.2247160000000008 110.28759800000000268 108.28100600000000497 105.23800699999999608 99.723029999999994288 97.510918000000003758 95.467712000000005901 94.448256999999998129 94.269042999999996368 92.753249999999994202 91.276984999999996262 90.067954999999997767 89.67041799999999796 89.342383999999995581 88.561058000000002721 88.285385000000005107 86.504897999999997182 85.921370999999993501 84.726249999999993179 83.661995000000004552 82.768096999999997365 81.968681000000003678 77.884788999999997827 76.680999999999997385 76.636893999999998073 76.638785999999996079 76.640686000000002309 76.640686000000002309 76.643531999999993332 76.643531999999993332 76.645431999999999562 76.645431999999999562 76.645431999999999562 76.645431999999999562 76.645431999999999562 77.515632999999994013 77.825248999999999455 79.88602400000000614 81.224975999999998066 81.962410000000005539 82.855186000000003332 83.529060000000001196 85.139626000000006911 87.034126000000000545 87.165137999999998897 86.293610000000001037 84.648857000000006678 83.939864999999997508 83.30241399999999885 82.566788000000002512 81.874718000000001439
116.45994600000000219 116.46599600000000407 116.31407900000000666 115.93104599999999493 115.75028199999999856 115.57686599999999544 114.85749800000000675 114.53356200000000342 114.47499799999999937 114.46530900000000486 114.42200499999999863 113.94561799999999607 112.86766799999999478 111.56512499999999477 110.59847299999999848 110.49198199999999304 111.42622400000000482 111.38864900000000091 111.20305600000000368 112.08898200000000145 112.79394499999999368 113.13295700000000465 113.38808400000000631 113.39064000000000476 113.26010899999999992 113.51442000000000121 113.22018400000000327 113.12422200000000316 112.8640749999999997 112.71565200000000573 112.21809399999999357 112.27423100000000034 112.2774959999999993 112.18604299999999796 112.75102200000000607 113.34444399999999575 113.31248499999999524 113.8565980000000053 113.94528999999999996 114.20777099999999393 114.46920000000000073 114.20983900000000233 114.45839700000000505 114.63003500000000656 114.55002600000000257 113.07897199999999316 110.83658599999999694 108.648894999999996 103.15522799999999393 101.18924699999999461 99.499908000000004904 98.424103000000002339 95.938393000000004918 94.773285000000001332 93.807486999999994737 92.082756000000003382 90.385756999999998129 89.952408000000005472 89.27833599999999592 88.929787000000004582 88.563354000000003907 88.213120000000003529 87.469115999999999644 86.771750999999994747 85.880393999999995458 85.340880999999995993 84.760918000000003758 81.103515999999999053 77.438629000000005931 76.680999999999997385 76.638785999999996079 76.640686000000002309 76.642585999999994328 76.643531999999993332 76.645431999999999562 76.645431999999999562 76.647330999999994106 76.647330999999994106 76.647330999999994106 76.645431999999999562 76.647330999999994106 77.439330999999995697 78.169914000000005672 79.10858899999999494 81.221198999999998591 82.048248000000000957 83.277466000000003987 83.906090000000006057 84.535690000000002442 86.350944999999995844 84.814391999999998006 84.192290999999997325 83.589775000000003047 83.065955999999999904 82.661582999999993149 81.64675900000000297
116.53052499999999725 116.51191699999999685 116.48115500000000111 116.42098199999999508 115.98754099999999312 115.72346500000000447 114.9647899999999936 114.63874800000000675 114.58817299999999761 114.66519200000000467 114.81639099999999587 114.62370300000000611 113.64958199999999522 112.58178700000000561 111.64202099999999973 111.40454099999999471 111.52858700000000169 111.225127999999998 110.81519299999999362 110.72603599999999346 111.83777600000000518 112.8875500000000045 113.36613499999999988 113.33896599999999921 112.6683879999999931 112.28649900000000628 112.53399699999999939 112.66690099999999575 112.74761999999999773 113.13641400000000203 113.24929799999999602 112.80799100000000124 112.95334599999999625 113.08174099999999385 113.78942899999999838 114.39546199999999487 114.88462800000000641 114.23216200000000242 114.39813999999999794 114.57344100000000253 114.85647600000000068 115.06949600000000089 114.75649300000000608 115.14188400000000456 115.03138699999999517 113.85162400000000105 112.55289500000000658 111.05727400000000671 104.51197799999999916 102.88697799999999916 101.80586999999999875 100.70196500000000128 99.053696000000002186 95.986937999999994986 94.871917999999993754 92.924484000000006745 90.635818000000000438 90.151252999999996973 89.569809000000006449 89.150786999999994009 88.748558000000002721 88.348793000000000575 87.481300000000004502 87.187980999999993514 87.247826000000003432 87.27227800000000002 84.639076000000002864 82.837470999999993637 80.80793799999999294 77.622307000000006383 76.792777999999998428 76.640686000000002309 76.642585999999994328 76.643531999999993332 76.645431999999999562 76.645431999999999562 76.647330999999994106 76.648276999999993109 76.648276999999993109 76.648276999999993109 76.647330999999994106 76.671997000000004618 77.086394999999996003 77.960425999999998226 78.956222999999994272 81.797202999999996109 82.34547399999999584 82.892746000000002482 83.607010000000002492 84.320601999999993836 83.779465000000001851 83.615486000000004196 83.154480000000006612 82.810310000000001196 82.495582999999996332 82.441970999999995229
116.70658899999999392 116.75827800000000423 116.76649500000000614 116.72187800000000379 116.58659400000000517 116.1117100000000022 115.3257679999999965 115.10463699999999676 115.07614900000000091 115.32958200000000204 115.64135000000000275 115.18595899999999688 114.40714300000000492 113.53784199999999771 112.2051620000000014 112.16920500000000516 111.77404799999999341 111.21154799999999341 110.40299199999999757 110.34110300000000393 111.51151299999999367 112.75789600000000235 113.63822199999999896 113.29273999999999489 112.86683700000000385 112.38933600000000013 112.21261599999999703 112.38996099999999956 113.09345999999999322 113.45802299999999718 113.63306400000000451 113.69495399999999563 113.52244600000000219 114.41711399999999799 114.88375899999999774 115.58765400000000056 116.38154600000000016 116.98658799999999758 115.12007900000000404 115.01306900000000155 115.10400400000000332 115.16127799999999581 115.19116999999999962 115.31635300000000655 115.26699100000000442 114.49617800000000045 113.22107699999999397 110.2641140000000064 108.10744499999999846 104.69725800000000504 104.29509000000000185 101.82002300000000616 100.55294800000000066 98.346451000000001841 95.74689499999999498 93.497992999999993913 90.343322999999998046 90.142501999999993245 89.737960999999998535 89.332854999999995016 88.936531000000002223 87.99980899999999906 87.444794000000001688 87.008437999999998169 87.076599000000001638 87.780899000000005117 85.971085000000002196 84.156318999999996322 81.855323999999995976 79.994881000000006566 77.071670999999994933 76.687781999999998561 76.642585999999994328 76.643531999999993332 76.645431999999999562 76.647330999999994106 76.647330999999994106 76.648276999999993109 76.651122999999998342 76.651122999999998342 76.651122999999998342 76.648276999999993109 76.671997000000004618 77.325005000000004429 78.63015699999999697 80.120491000000001236 81.501839000000003921 82.171188000000000784 83.025917000000006851 83.973922999999999206 83.624992000000005987 83.306952999999992926 82.979301000000006638 82.682052999999996246 82.701911999999992986 82.806747000000001435
117.65676100000000304 117.18651599999999746 117.19103200000000697 117.09192699999999832 116.77257500000000334 116.65042900000000259 116.5886380000000031 115.82571400000000494 115.78337899999999649 115.81928299999999865 116.10588099999999656 116.13540600000000325 115.05947899999999606 113.50584399999999619 112.85925299999999538 112.46950499999999806 112.00717199999999707 110.90554000000000201 109.57840000000000202 110.08912700000000484 111.34592399999999657 112.95401800000000492 114.72888899999999524 114.26874499999999557 113.69644900000000121 113.03306600000000515 112.64740000000000464 113.05862399999999468 113.26632700000000398 113.70518500000000017 113.92791699999999366 113.9745410000000021 114.64389799999999298 115.25221299999999758 115.73364999999999725 116.88375100000000373 117.9518810000000002 118.98626699999999801 118.2784730000000053 115.74032599999999604 115.31346899999999778 114.9801479999999998 114.96511099999999317 115.10698700000000372 115.33387000000000455 114.83020799999999895 112.59151500000000112 111.11482999999999777 109.13243099999999686 107.79833200000000204 105.98567199999999389 103.81709299999999985 102.08552600000000155 99.599815000000006648 97.246360999999993169 91.328545000000005416 90.233520999999996093 89.970298999999997136 89.537154999999998495 89.094925000000003479 88.573502000000004841 88.098922999999999206 87.491187999999993963 87.017028999999993744 87.235732999999996196 87.439064000000001897 86.933661999999998216 85.262412999999995122 83.13303399999999499 79.360000999999996907 78.373756000000000199 77.154480000000006612 76.680000000000006821 76.643531999999993332 76.645431999999999562 76.647330999999994106 76.648276999999993109 76.648276999999993109 76.651122999999998342 76.651122999999998342 76.651122999999998342 76.651122999999998342 76.651122999999998342 76.671997000000004618 77.385208000000005768 78.161461000000002741 79.243758999999997172 81.619613999999998555 83.474564000000000874 83.878647000000000844 83.61360899999999674 83.39331099999999708 83.12388599999999883 82.867783000000002858 82.956680000000005748 83.174362000000002126
118.04322799999999916 118.12206299999999715 117.70647400000000005 117.2519450000000063 117.1391749999999945 117.10534699999999475 117.10628499999999974 117.11849200000000337 116.29161799999999971 116.3918689999999998 116.67822999999999922 116.71369199999999466 115.48212399999999889 114.17228699999999719 113.53008300000000474 113.08441899999999691 112.77813000000000443 112.31203499999999451 112.25453899999999408 110.84498600000000579 111.9293519999999944 113.48896799999999985 116.18038199999999449 116.12406900000000576 114.81219500000000266 113.97237400000000207 113.14215099999999836 113.32941399999999987 113.66397899999999765 113.91648899999999855 114.18270099999999445 114.41299399999999764 114.80960799999999722 115.40393100000000004 116.76334400000000358 117.95272099999999682 120.58818800000000238 120.94718899999999451 120.15000899999999717 119.09432999999999936 115.00257100000000321 114.81099700000000041 114.83136000000000365 115.02055400000000418 115.26609000000000549 114.15032999999999674 112.87891399999999464 111.46494300000000521 109.74134800000000212 108.41349800000000414 107.50088499999999669 105.26223799999999642 103.77830500000000313 101.45316300000000354 95.751945000000006303 92.760452000000000794 90.218902999999997405 89.850257999999996628 89.472076000000001272 88.675407000000006974 88.599395999999998708 88.401450999999994451 87.725380000000001246 87.300346000000004665 87.248160999999996079 87.312820000000002096 87.286170999999995956 86.266982999999996196 82.852226000000001704 81.133681999999993195 79.983131000000000199 79.26528199999999913 77.499634000000000356 76.645431999999999562 76.645431999999999562 76.647330999999994106 76.648276999999993109 76.649223000000006323 76.651122999999998342 76.654921999999999116 76.654921999999999116 76.654921999999999116 76.654921999999999116 76.654921999999999116 76.671997000000004618 76.703186000000002309 77.919891000000006898 81.088218999999995162 81.698325999999994451 83.455344999999994116 83.459952999999998724 83.431670999999994365 83.332702999999995086 83.354491999999993368 83.221496999999999389 83.492760000000004084
118.14667500000000189 118.2180709999999948 117.79107700000000136 117.3618850000000009 117.30837999999999965 117.34754200000000424 117.43331899999999735 117.60552199999999345 117.67498799999999903 117.11504399999999748 117.30835000000000434 117.09038499999999772 116.86142700000000616 117.0699769999999944 114.85853600000000085 114.58088700000000415 114.56637600000000532 114.48309299999999666 114.33338200000000029 114.22728700000000401 113.29096199999999328 116.11199200000000076 116.8678510000000017 116.67085299999999393 116.172852000000006 113.65960699999999406 113.42995500000000675 113.57128099999999904 113.87278000000000588 114.34217099999999334 114.4967500000000058 114.6264720000000068 114.95307900000000245 115.48391700000000526 117.07619499999999846 121.1113589999999931 121.59179699999999968 122.2607799999999969 122.15420500000000459 120.16934999999999434 118.53305799999999692 115.2745129999999989 115.11402099999999393 115.17430899999999383 115.21997100000000103 114.62229200000000162 113.59676399999999319 111.70326199999999517 110.20851899999999546 109.01286299999999585 109.25962800000000641 109.14214300000000435 105.62232199999999693 100.1608889999999974 97.488380000000006476 94.491348000000002116 92.13053899999999885 90.120506000000005997 89.056319999999999482 88.743256000000002359 88.677422000000007074 88.626288999999999874 88.39656800000000203 87.582909000000000788 87.54204599999999914 87.478279000000000565 87.455414000000004648 87.055404999999993265 85.031745999999998276 83.580185000000000173 82.318236999999996328 81.247001999999994837 80.112076000000001841 79.277618000000003917 76.647330999999994106 76.647330999999994106 76.648276999999993109 76.651122999999998342 76.651122999999998342 76.651122999999998342 76.654921999999999116 76.655868999999995594 76.655868999999995594 76.655868999999995594 76.654921999999999116 76.671997000000004618 77.854538000000005127 78.946265999999994278 80.364074999999999704 80.197104999999993424 82.523628000000002203 83.245559999999997558 83.379395000000002369 83.46995499999999879 83.496521000000001322 84.111580000000003565
117.98073599999999317 117.97119899999999859 117.63175999999999988 117.17009000000000185 117.03962699999999586 117.36856799999999623 117.75149500000000558 117.93769100000000094 118.02084399999999675 118.0801089999999931 117.92020399999999825 117.99824499999999716 118.36231200000000285 119.01115400000000477 119.55256699999999626 117.55072800000000655 117.29145099999999502 116.62937900000000013 116.05043799999999976 115.83412900000000434 116.97164899999999932 116.9609530000000035 117.7069929999999971 117.13945800000000474 116.48730500000000632 114.2106550000000027 113.59303300000000547 113.76097900000000607 114.08531999999999584 114.91168199999999899 115.02690099999999518 115.08490000000000464 115.0876920000000041 115.51821099999999376 119.55055199999999616 121.2859499999999997 122.24030299999999727 122.8392029999999977 123.14025900000000036 122.20596299999999701 120.78786499999999648 119.35806999999999789 116.35150099999999895 115.7038040000000052 115.40085600000000454 115.00090799999999547 114.51947800000000655 113.72633399999999426 110.19527399999999773 110.44680800000000431 111.13935100000000489 111.30474100000000703 110.56001999999999441 103.0018309999999957 99.857444999999998458 97.115973999999994248 94.079864999999998076 90.359656999999998561 89.257491999999999166 88.951522999999994568 88.901672000000004914 88.903380999999995993 88.663642999999993322 88.518494000000004007 87.930733000000003585 87.81491900000000328 87.658851999999995996 87.526000999999993724 87.544539999999997804 85.99121900000000096 84.881698999999997568 83.087722999999996887 82.251045000000004848 82.060303000000004658 81.449577000000005 77.612305000000006316 76.649223000000006323 76.651122999999998342 76.651122999999998342 76.654921999999999116 76.655868999999995594 76.658714000000003352 76.658714000000003352 76.658714000000003352 76.658714000000003352 76.671997000000004618 76.671997000000004618 77.57674400000000503 78.207313999999996668 78.771141000000000076 79.949828999999994039 82.632132999999996059 83.280174000000002366 83.486923000000004436 83.492576999999997156 84.09796900000000619
117.78336299999999426 117.72215300000000582 117.43026700000000062 116.98364300000000071 116.83332799999999452 117.47993499999999756 117.83950000000000102 118.11772899999999709 118.24163799999999469 118.2906420000000054 118.92053199999999435 118.83021499999999548 119.1809159999999963 119.69343600000000549 120.15131399999999928 119.82518000000000313 119.3550340000000034 118.15286999999999296 117.27172099999999944 117.26552599999999416 117.80873900000000276 118.38208000000000197 118.4709399999999988 117.50921599999999501 115.78855900000000645 114.36854599999999493 113.79992699999999672 113.89677399999999352 114.73751099999999781 115.14694199999999569 115.31171399999999494 115.3728100000000012 115.47235899999999731 117.1809159999999963 119.39300500000000227 120.9025270000000063 121.91418500000000336 122.63682599999999923 122.92626199999999415 122.71366899999999589 121.4452969999999965 120.21943699999999922 117.86021399999999915 116.69427500000000464 115.578093999999993 115.20784000000000447 115.08340499999999906 114.63828300000000127 114.00265500000000429 112.19956999999999425 112.93513500000000249 113.34304000000000201 112.31247700000000123 109.86006899999999575 103.48741900000000271 100.36909500000000151 94.089218000000002462 91.542145000000004984 89.474648000000001957 88.646370000000004552 89.167854000000005499 89.162734999999997854 89.095771999999996638 88.948859999999996262 88.63744400000000212 88.068016000000000076 87.592415000000002578 87.705284000000006017 88.034133999999994558 88.576706000000001495 86.996735000000001037 86.278114000000002193 85.186874000000003093 84.484322000000005914 83.737517999999994345 81.220703000000000316 76.649223000000006323 76.651122999999998342 76.651122999999998342 76.654921999999999116 76.656814999999994598 76.656814999999994598 76.660613999999995372 76.660613999999995372 76.660613999999995372 76.660613999999995372 76.660613999999995372 76.670997999999997319 77.363686000000001286 78.028450000000006526 78.627646999999996069 79.697738999999998555 82.61531800000000203 83.405036999999992986 83.588279999999997472 83.991600000000005366
117.47615100000000155 117.46842200000000389 117.31052400000000091 116.88040200000000368 116.98426100000000361 117.41525300000000698 117.85074600000000089 118.23975400000000491 118.41181199999999762 118.64328000000000429 119.06334699999999316 119.38446799999999826 119.27477299999999616 119.61203000000000429 119.73780800000000113 119.27565800000000706 118.8220139999999958 118.37590000000000146 117.39309699999999737 117.63195000000000334 117.83356499999999301 117.66664099999999848 117.12664800000000298 116.58001699999999801 115.74444599999999639 114.4656750000000045 113.9369130000000041 114.17615499999999429 115.14220400000000666 115.37381000000000597 115.60701000000000249 115.73450499999999863 116.23046100000000536 117.02860300000000393 118.90740999999999872 120.11672199999999577 121.20304099999999892 122.48252899999999954 122.08593000000000472 122.01171899999999937 121.40107000000000426 120.36856099999999969 118.40092500000000086 116.95490999999999815 115.43679799999999602 115.15636399999999639 115.10877200000000187 115.22907999999999618 115.09759499999999832 114.80590100000000575 114.53624000000000649 115.39292100000000119 115.54302199999999345 113.63178299999999865 110.99313399999999774 104.06573500000000365 97.37791400000000408 93.39018199999999581 89.951294000000004303 88.235602999999997564 89.643364000000005376 89.447059999999993352 89.333443000000002598 89.085380999999998153 88.782264999999995325 88.049614000000005376 87.65494499999999789 87.789467000000001917 88.228911999999994009 88.944130000000001246 90.131659999999996558 89.979659999999995534 88.017928999999995199 87.031799000000006572 85.564628999999996495 85.242439000000004512 84.965080000000000382 78.207892999999998551 76.651122999999998342 76.655868999999995594 76.656814999999994598 76.658714000000003352 76.658714000000003352 76.661559999999994375 76.661559999999994375 76.661559999999994375 76.661559999999994375 76.661559999999994375 76.678000999999994747 77.194336000000006948 77.830512999999996282 78.73397099999999682 79.648560000000003356 82.74490400000000534 83.226944000000003143 83.762878000000000611
117.46138000000000545 117.46599600000000407 117.33518999999999721 116.64622500000000116 116.90685299999999813 117.34666400000000408 117.79026799999999753 118.20687100000000669 118.47528800000000615 118.62899799999999573 119.02973199999999565 119.37956200000000706 119.47499799999999937 119.22767600000000243 118.90693699999999922 118.70761099999999999 118.61562299999999937 117.93827799999999684 117.51646399999999915 117.45520799999999895 117.30345199999999295 116.65291600000000471 115.3449939999999998 115.06967199999999707 115.36856799999999623 114.47620399999999563 114.08676900000000387 114.86040500000000009 115.34257499999999652 115.81461299999999426 115.90871400000000335 116.4372019999999992 116.80099500000000035 117.33165700000000697 118.23905200000000093 119.37566400000000044 121.74478100000000325 122.03140299999999741 121.28612499999999841 120.57129700000000128 121.07028999999999996 119.30692299999999761 118.31861899999999821 116.78443099999999788 114.94607499999999334 114.05338299999999663 114.87194100000000674 115.16590100000000518 115.29396800000000667 115.13148499999999785 115.94522899999999765 116.59008000000000038 117.56314799999999821 116.35450000000000159 114.18167900000000259 107.36244200000000149 102.85151700000000119 95.579314999999994029 90.777420000000006439 88.277350999999995906 89.238960000000005834 89.670929000000000997 89.402900999999999954 89.097022999999992976 88.504317999999997824 88.126761999999999375 87.725677000000004568 87.784653000000005818 88.227363999999994348 89.728629999999995448 90.290358999999995149 90.335128999999994903 90.090766999999999598 88.06414800000000298 87.404015000000001123 87.033752000000006888 86.587128000000006978 86.249228999999999701 76.654921999999999116 76.655868999999995594 76.656814999999994598 76.658714000000003352 76.660613999999995372 76.660613999999995372 76.663460000000000605 76.663460000000000605 76.663460000000000605 76.663460000000000605 76.663460000000000605 76.678000999999994747 77.132866000000007034 77.749228999999999701 79.992500000000006821 81.262230000000002406 82.702545000000000641 83.525283999999999196
117.50740100000000155 117.50485199999999963 117.43291499999999417 117.06379699999999389 116.84884599999999466 117.29641700000000526 117.74195100000000025 118.43843800000000499 118.47499799999999937 118.58696700000000135 118.9581450000000018 119.33711999999999875 119.44632699999999659 119.39429499999999962 119.36359400000000619 119.03539299999999912 118.77367399999999975 118.02648200000000145 117.58396899999999619 117.00731700000000046 116.67732999999999777 115.24832200000000171 114.60027300000000139 114.30557299999999543 114.14589700000000505 114.29177900000000534 114.5830919999999935 115.0632399999999933 115.52090499999999906 115.97792800000000568 116.74237100000000567 116.89652300000000196 117.25836900000000185 117.69415300000000002 118.21370699999999943 119.02684800000000109 120.6716689999999943 120.84474199999999655 119.8583150000000046 118.85528600000000665 117.81801600000000008 117.00920100000000446 117.36532599999999604 115.66917399999999816 113.4018169999999941 113.57596599999999398 114.03327899999999318 114.84764900000000409 115.28952800000000423 115.54261800000000449 116.05841800000000319 116.80947899999999606 117.76144399999999735 117.30212400000000628 113.31233199999999783 109.15909600000000523 104.75918599999999969 100.09135399999999549 88.937897000000006642 88.223877000000001658 88.977463000000000193 89.139731999999995082 89.098777999999995814 88.649567000000004668 88.484322000000005914 88.177527999999995245 87.761909000000002834 87.697006000000001791 88.751739999999998076 89.592277999999993199 90.22513600000000622 90.358269000000007054 89.917343000000002462 89.43836199999999792 88.585753999999994335 88.170203999999998246 87.723961000000002741 86.455460000000002196 84.52242999999999995 78.096939000000006104 76.656814999999994598 76.658714000000003352 76.661559999999994375 76.661559999999994375 76.663460000000000605 76.663460000000000605 76.663460000000000605 76.663460000000000605 76.663460000000000605 76.663460000000000605 76.677002000000001658 77.700462000000001694 78.873160999999996079 80.752121000000002482 81.967392000000003804 83.467490999999995438
117.72571600000000558 117.77843500000000176 117.99598699999999951 118.34417700000000195 118.87336700000000178 117.74912299999999732 118.24916799999999739 118.43804199999999582 118.47499799999999937 118.51770000000000493 118.85501100000000463 119.34950299999999856 119.32558400000000631 119.32526400000000422 119.37966199999999617 119.37542700000000195 118.5975040000000007 118.2054820000000035 117.76587700000000325 117.19507600000000025 115.86708099999999888 114.90382400000000018 114.27185099999999807 114.00674399999999764 113.99707800000000191 114.75179300000000637 115.18399800000000255 115.28865799999999808 115.68025199999999586 116.00176199999999938 116.60708599999999535 116.87259699999999896 117.42818499999999915 117.72946899999999459 118.19448099999999613 118.13429999999999609 118.22132100000000321 119.49570500000000095 118.1873250000000013 116.31357599999999763 115.64856699999999989 115.07913200000000131 114.5134350000000012 114.59009600000000262 113.13801599999999326 113.47245800000000315 113.9738619999999969 114.83731099999999969 115.75854499999999803 115.97732499999999334 116.16578699999999458 116.57662999999999442 117.03710900000000095 115.646324000000007 113.80431400000000508 110.40167200000000491 106.22506699999999569 102.76931000000000438 94.786643999999995458 89.793853999999996063 89.254744999999999777 88.896179000000003612 88.443672000000006506 88.261116000000001236 88.395340000000004466 88.156386999999995169 87.770126000000004751 87.897475999999997498 88.304512000000002558 89.080512999999996282 90.02642099999999914 90.213638000000003103 89.85772699999999702 89.38019599999999798 88.961662000000004014 88.650688000000002376 88.020675999999994588 87.26390100000000416 85.83859300000000303 84.7784730000000053 78.604575999999994451 76.660613999999995372 76.661559999999994375 76.661559999999994375 76.663460000000000605 76.663460000000000605 76.666306000000005838 76.666306000000005838 76.666306000000005838 76.666306000000005838 76.666306000000005838 76.677002000000001658 77.78263099999999497 79.214966000000003987 81.467742999999998688 84.159514999999998963
118.67350000000000421 118.65620400000000245 119.15258000000000038 119.70284999999999798 120.26203900000000147 119.71804799999999602 118.48843399999999804 118.48835800000000518 118.47499799999999937 118.49142500000000666 118.78785700000000247 119.13513899999999524 119.10646099999999592 119.1242069999999984 119.27223200000000247 119.30689200000000483 119.10257699999999659 118.48422999999999661 118.06535300000000177 117.06248499999999524 116.43955200000000616 115.61384599999999523 114.29650900000000036 114.15721899999999778 114.66525300000000698 115.19811199999999474 115.61688200000000393 115.8913649999999933 115.83296199999999487 116.09477200000000607 116.24207300000000487 116.37959299999999985 116.33937099999999987 117.27597799999999495 117.39435600000000193 117.2858889999999974 117.30300900000000297 117.23299400000000503 115.48368800000000078 114.43006099999999492 113.76424400000000503 113.66386400000000378 113.92181399999999769 113.75460099999999386 113.38099699999999359 113.74172199999999577 114.20630599999999788 116.39002999999999588 117.02893799999999658 116.50376099999999724 116.39656100000000549 116.39232599999999707 116.20473499999999945 114.65434999999999377 112.27423100000000034 110.72573900000000435 107.25373100000000193 100.55801400000000001 97.880463000000005991 94.545517000000003804 90.603354999999993424 88.067290999999997325 87.653121999999996206 87.980331000000006725 87.909187000000002854 88.038291999999998438 87.59288800000000208 87.733306999999996378 88.002189999999998804 88.52701600000000326 89.056342999999998256 89.751014999999995325 89.509208999999998468 89.015770000000003392 88.593163000000004104 88.450478000000003931 88.359245000000001369 88.043732000000005655 86.774483000000003585 85.349579000000005635 82.796454999999994584 79.575103999999996063 76.661559999999994375 76.661559999999994375 76.663460000000000605 76.666306000000005838 76.666306000000005838 76.667572000000006938 76.667572000000006938 76.667572000000006938 76.667572000000006938 76.667572000000006938 76.681083999999998468 77.938346999999993159 82.557029999999997472 83.785645000000002369
119.87093400000000543 120.28303499999999815 120.20154599999999334 120.54431900000000155 120.84834299999999985 120.0531390000000016 119.3638080000000059 118.59412399999999366 118.47499799999999937 118.53655999999999437 118.6242600000000067 118.67528500000000236 118.66469600000000639 118.871452000000005 119.35323300000000302 119.36000099999999691 119.28389699999999607 119.05267299999999864 118.4178540000000055 117.50748400000000515 116.99424700000000144 116.19840200000000152 115.44162799999999436 114.82682800000000611 115.13316299999999615 115.60321000000000424 115.95039400000000285 116.13489500000000021 116.04547900000000027 115.85551499999999692 115.86738599999999622 115.93457800000000191 115.79510500000000661 115.36125199999999325 116.36922500000000014 116.61425800000000663 116.77939600000000553 116.06479600000000119 114.73191799999999319 113.74380499999999472 112.8323520000000002 113.06393400000000327 113.72113000000000227 113.86271700000000351 114.13464399999999443 114.12205500000000313 114.67087600000000691 116.92891699999999844 117.52951000000000192 117.39237199999999461 116.7350540000000052 116.3392029999999977 115.73733500000000163 114.21741500000000258 112.24587999999999965 110.07404300000000319 104.70681799999999839 101.96037300000000414 99.653548999999998159 96.69071999999999889 92.882011000000005652 87.660431000000002655 86.654403999999999542 87.243858000000003017 87.767127999999999588 87.682311999999996033 87.542786000000006652 87.606812000000005014 87.746407000000004928 88.077224999999998545 88.838706999999999425 88.829993999999999232 89.004813999999996099 88.565635999999997807 88.165726000000006479 88.445296999999996501 88.72988900000000001 88.572425999999992996 87.442138999999997395 84.478072999999994863 83.143623000000005163 82.066085999999998535 79.369338999999996531 76.661559999999994375 76.663460000000000605 76.666306000000005838 76.666306000000005838 76.667572000000006938 76.668205000000000382 76.668205000000000382 76.668205000000000382 76.668205000000000382 76.668205000000000382 78.066612000000006333 79.835685999999995488 82.901298999999994521
120.51111600000000124 120.6450580000000059 120.76255799999999851 120.87268100000000004 120.65433500000000322 120.16819800000000384 119.54949999999999477 118.85544600000000059 118.47505200000000514 118.50649300000000608 118.58251199999999415 118.66151399999999683 118.69298600000000476 118.89906299999999817 119.22937000000000296 119.34545099999999707 119.29069499999999948 119.09039300000000594 118.19797499999999957 117.74040200000000311 117.23319999999999652 116.4903410000000008 115.38221699999999714 115.24933599999999956 115.27311699999999917 115.71303600000000245 115.96730800000000272 116.18910200000000543 116.12928800000000251 116.02231600000000356 115.76963000000000648 115.8059690000000046 115.31240099999999416 115.13017299999999921 115.42153899999999567 115.93898799999999483 116.89666699999999366 116.4072879999999941 115.31802399999999409 114.2992100000000022 113.52822100000000205 113.31694799999999645 113.61555500000000052 113.89054899999999293 114.15033699999999328 114.6726149999999933 116.15811200000000269 117.19121599999999717 117.65822599999999909 117.47982000000000369 116.61618799999999396 116.33871499999999344 115.46133399999999369 114.08978299999999706 112.50440999999999292 108.64468399999999804 106.87216200000000299 103.13940399999999897 100.60465200000000152 98.579543999999998505 91.175346000000004665 87.316490000000001714 85.950355999999999312 85.991744999999994548 88.037887999999995259 88.051536999999996169 87.848113999999995372 87.724388000000004695 87.65565499999999588 88.341414999999997804 88.67076099999999883 88.741721999999995774 88.705582000000006815 88.357712000000006469 88.129776000000006775 88.527564999999995621 88.921218999999993571 89.262985000000000468 86.500365999999999644 85.117530999999999608 83.805023000000005595 82.40486900000000503 81.381889000000001033 77.974189999999993006 76.663460000000000605 76.666306000000005838 76.666306000000005838 76.667572000000006938 76.668205000000000382 76.669150999999999385 76.669150999999999385 76.669150999999999385 76.669150999999999385 76.669150999999999385 76.677002000000001658 79.290893999999994435
121.05324600000000146 120.95209499999999991 120.94020100000000184 120.8782499999999942 120.73133900000000551 120.25314299999999434 119.63250700000000393 118.92284399999999778 118.47499799999999937 118.52002699999999891 118.65558599999999956 118.81269799999999748 118.94577800000000423 118.97820299999999349 118.95033300000000054 119.14231900000000053 119.11177100000000451 118.53866600000000631 118.03824600000000089 117.5639189999999985 117.25025200000000325 116.61538699999999835 115.43531799999999521 115.19062800000000379 114.99340800000000229 114.86132800000000032 115.69196300000000122 115.94522899999999765 116.12931100000000129 116.30273400000000095 116.49351500000000215 116.00254099999999369 115.66475699999999449 115.42241699999999582 115.54781300000000499 115.87784600000000523 116.79196899999999459 116.70407899999999302 115.85476699999999539 114.99108900000000233 113.74231000000000336 113.74572000000000571 113.71741500000000258 113.92753600000000347 114.0457229999999953 114.89211299999999483 115.41322300000000212 116.69609099999999557 117.19806699999999466 116.67318699999999865 116.2429960000000051 115.71108999999999867 115.11763799999999947 114.45130899999999485 111.72000900000000456 110.11491399999999885 108.34009600000000262 106.09910600000000613 102.39409600000000466 96.876045000000004848 93.603820999999996388 89.056434999999993352 85.460571000000001618 87.346396999999996069 88.487610000000003652 88.822952000000000794 88.438338999999999146 87.985518999999996481 88.189194000000000528 88.402657000000004928 88.778587000000001694 88.901588000000003831 88.931411999999994578 88.736182999999996923 88.409233000000000402 88.851791000000005738 89.260666000000000508 90.048714000000003921 88.900490000000004898 87.565055999999998448 84.801888000000005263 83.560051000000001409 81.454909999999998149 79.861069000000000528 78.352226000000001704 76.666306000000005838 76.666306000000005838 76.668205000000000382 76.669150999999999385 76.669150999999999385 76.672996999999995182 76.672996999999995182 76.672996999999995182 76.672996999999995182 76.672996999999995182 76.672996999999995182
