ncols        86
nrows        50
xllcorner    2275768.68182
yllcorner    5592905.02243
cellsize     50.000000000000
70.005959000000004266 69.496498000000002548 69.500052999999994086 69.482712000000006469 68.550124999999994202 68.029999000000003662 68.029999000000003662 68.029999000000003662 68.029999000000003662 68.029999000000003662 68.029999000000003662 68.029999000000003662 68.029999000000003662 68.029999000000003662 68.029999000000003662 68.029999000000003662 68.029999000000003662 68.03099799999999675 68.03099799999999675 68.03099799999999675 68.03099799999999675 68.03099799999999675 68.03099799999999675 68.03099799999999675 68.029999000000003662 68.029999000000003662 68.028998999999998887 68.028998999999998887 68.028998999999998887 68.028998999999998887 68.028998999999998887 68.028998999999998887 68.028998999999998887 68.028998999999998887 68.028998999999998887 68.028998999999998887 68.028998999999998887 68.028998999999998887 68.028998999999998887 68.028998999999998887 68.028998999999998887 68.028998999999998887 68.028998999999998887 68.028998999999998887 68.028998999999998887 68.028998999999998887 68.028000000000005798 68.028998999999998887 68.028998999999998887 68.028000000000005798 68.028000000000005798 68.028000000000005798 68.029999000000003662 68.029999000000003662 68.53176899999999705 68.198691999999994096 68.028998999999998887 70.102233999999995717 69.845314000000001897 69.799484000000006745 70.579552000000006728 75.174660000000002924 75.681563999999994508 76.399376000000003728 74.620009999999993511 73.829002000000002681 73.084755000000001246 72.873031999999994923 73.524590000000003442 74.647232000000002472 74.587699999999998113 73.372787000000002422 72.764602999999993926 72.370757999999995036 72.123230000000006612 72.091948999999999614 72.205894000000000688 72.211303999999998382 72.422516000000001668 72.750206000000005702 72.925583000000003153 73.708267000000006419 74.442863000000002671 75.770049999999997681 76.599952999999999292 75.845139000000003193
71.852851999999998611 70.130393999999995458 69.508492000000003941 69.545096999999998388 69.130225999999993292 68.657737999999994827 68.042000000000001592 68.042000000000001592 68.029999000000003662 68.040999999999996817 68.040999999999996817 68.040999999999996817 68.040999999999996817 68.040999999999996817 68.029999000000003662 68.029999000000003662 68.04299899999999468 68.04299899999999468 68.04299899999999468 68.04299899999999468 68.04299899999999468 68.04299899999999468 68.04299899999999468 68.04299899999999468 68.04299899999999468 68.04299899999999468 68.042000000000001592 68.042000000000001592 68.042000000000001592 68.028998999999998887 68.028998999999998887 68.028998999999998887 68.028998999999998887 68.028998999999998887 68.028998999999998887 68.028998999999998887 68.028998999999998887 68.028998999999998887 68.028998999999998887 68.028998999999998887 68.028998999999998887 68.028998999999998887 68.028998999999998887 68.040001000000003728 68.040001000000003728 68.040001000000003728 68.040001000000003728 68.040001000000003728 68.040001000000003728 68.040999999999996817 68.040999999999996817 68.040999999999996817 68.042000000000001592 68.042000000000001592 68.042000000000001592 68.042000000000001592 68.042000000000001592 68.042000000000001592 68.042000000000001592 68.040999999999996817 68.040999999999996817 68.040999999999996817 68.040999999999996817 68.040999999999996817 72.532120000000006144 73.520210000000005834 73.024826000000004456 73.103995999999995092 73.582176000000004024 74.537047999999998638 74.098556999999999562 72.647102000000003841 72.208977000000004409 72.020645000000001801 72.175117000000000189 72.239433000000005336 72.433600999999995906 72.513107000000005087 72.505324999999999136 72.533646000000004506 72.645392999999998551 73.751221000000001027 74.7089160000000021 76.765502999999995382 76.657280000000000086 75.82026700000000119
74.084357999999994604 69.861419999999995412 69.32831600000000094 69.284767000000002213 69.248016000000006898 69.133872999999994136 68.042000000000001592 68.042000000000001592 68.040999999999996817 68.040999999999996817 68.040999999999996817 68.040999999999996817 68.040999999999996817 68.040999999999996817 68.029999000000003662 68.029999000000003662 68.04299899999999468 68.04299899999999468 68.04299899999999468 68.04299899999999468 68.04299899999999468 68.04299899999999468 68.04299899999999468 68.04299899999999468 68.04299899999999468 68.04299899999999468 68.042000000000001592 68.040999999999996817 68.040999999999996817 68.040999999999996817 68.040999999999996817 68.040999999999996817 68.028998999999998887 68.028998999999998887 68.028998999999998887 68.028998999999998887 68.028998999999998887 68.028998999999998887 68.028998999999998887 68.028998999999998887 68.028998999999998887 68.028998999999998887 68.028998999999998887 68.040001000000003728 68.040001000000003728 68.040001000000003728 68.040001000000003728 68.040001000000003728 68.040001000000003728 68.040001000000003728 68.040001000000003728 68.040999999999996817 68.042000000000001592 68.042000000000001592 68.042000000000001592 68.042000000000001592 68.042000000000001592 68.042000000000001592 68.042000000000001592 68.040999999999996817 68.040999999999996817 68.040001000000003728 68.040001000000003728 68.040001000000003728 68.040001000000003728 68.040001000000003728 69.575942999999995209 69.832740999999998621 70.371802999999999884 70.19087199999999882 69.600121000000001459 70.92233299999999474 70.384108999999995149 70.363585999999997966 70.724891999999996983 71.690048000000004436 72.621459999999999013 72.738006999999996083 72.557877000000004841 72.040901000000005183 71.727562000000006037 73.370093999999994594 74.262825000000006526 75.800811999999993418 75.317565999999999349 72.800255000000007044
74.634131999999993923 73.923607000000004064 69.954300000000003479 68.837502000000000635 68.786957000000001017 69.074600000000003774 68.709220999999999435 68.042000000000001592 68.040999999999996817 68.040999999999996817 68.040999999999996817 68.040999999999996817 68.040999999999996817 68.040999999999996817 68.029999000000003662 68.04299899999999468 68.04299899999999468 68.04299899999999468 68.04299899999999468 68.04299899999999468 68.04299899999999468 68.04299899999999468 68.04299899999999468 68.04299899999999468 68.04299899999999468 68.042000000000001592 68.040999999999996817 68.040999999999996817 68.040999999999996817 68.040999999999996817 68.040999999999996817 68.040999999999996817 68.040999999999996817 68.040999999999996817 68.040999999999996817 68.040999999999996817 68.028998999999998887 68.028998999999998887 68.028998999999998887 68.028998999999998887 68.028998999999998887 68.028998999999998887 68.028998999999998887 68.040001000000003728 68.040001000000003728 68.040001000000003728 68.040001000000003728 68.040001000000003728 68.040001000000003728 68.040001000000003728 68.040001000000003728 68.040001000000003728 68.040001000000003728 68.040999999999996817 68.040999999999996817 68.040001000000003728 68.040001000000003728 68.040999999999996817 68.040999999999996817 68.040999999999996817 68.040999999999996817 68.040001000000003728 68.040001000000003728 68.040001000000003728 68.040001000000003728 68.040001000000003728 68.040001000000003728 68.040999999999996817 68.220855999999997721 68.058937000000000239 68.040999999999996817 68.040999999999996817 68.040999999999996817 68.531165999999998917 70.37975299999999379 71.108481999999995082 71.755622999999999934 70.466712999999998601 71.018799000000001342 70.473716999999993504 71.024010000000004084 70.889328000000006114 70.224593999999996186 72.290160999999997671 72.344230999999993514 71.956428999999999974
74.902313000000006582 75.36637100000000089 74.782386999999999944 70.665656999999995946 68.577583000000004176 69.235770999999999731 68.745720000000005712 68.040999999999996817 68.040999999999996817 68.040999999999996817 68.040999999999996817 68.029999000000003662 68.029999000000003662 68.029999000000003662 68.029999000000003662 68.04299899999999468 68.04299899999999468 68.042000000000001592 68.042000000000001592 68.042000000000001592 68.042000000000001592 68.042000000000001592 68.042000000000001592 68.042000000000001592 68.042000000000001592 68.042000000000001592 68.040999999999996817 68.040999999999996817 68.040999999999996817 68.040999999999996817 68.040999999999996817 68.040999999999996817 68.040999999999996817 68.040999999999996817 68.040999999999996817 68.040999999999996817 68.040999999999996817 68.040999999999996817 68.040999999999996817 68.040999999999996817 68.028998999999998887 68.028998999999998887 68.028998999999998887 68.040001000000003728 68.040001000000003728 68.040001000000003728 68.040001000000003728 68.040001000000003728 68.040001000000003728 68.040001000000003728 68.040001000000003728 68.040001000000003728 68.040001000000003728 68.040001000000003728 68.040001000000003728 68.040001000000003728 68.040001000000003728 68.040001000000003728 68.040001000000003728 68.040001000000003728 68.040999999999996817 68.040001000000003728 68.040001000000003728 68.040001000000003728 68.040001000000003728 68.040001000000003728 68.040001000000003728 68.040999999999996817 68.040999999999996817 68.040999999999996817 68.040999999999996817 68.040999999999996817 68.040999999999996817 68.040999999999996817 68.040999999999996817 68.045554999999993129 68.040999999999996817 68.040999999999996817 68.040001000000003728 68.104377999999996973 70.507637000000002558 68.663612000000000535 68.040001000000003728 68.040001000000003728 68.864165999999997325 71.216437999999996578
74.689826999999993973 75.317070000000001073 74.748863000000000056 72.770438999999996099 70.425895999999994501 68.787604999999999222 68.55826600000000326 68.040001000000003728 68.040001000000003728 68.040001000000003728 68.040001000000003728 68.029999000000003662 68.029999000000003662 68.029999000000003662 68.029999000000003662 68.042000000000001592 68.042000000000001592 68.042000000000001592 68.042000000000001592 68.042000000000001592 68.042000000000001592 68.042000000000001592 68.042000000000001592 68.042000000000001592 68.042000000000001592 68.042000000000001592 68.040999999999996817 68.040999999999996817 68.040999999999996817 68.040999999999996817 68.040999999999996817 68.040999999999996817 68.040999999999996817 68.040999999999996817 68.040001000000003728 68.040001000000003728 68.040001000000003728 68.040001000000003728 68.040001000000003728 68.040001000000003728 68.040001000000003728 68.040001000000003728 68.040001000000003728 68.040001000000003728 68.040001000000003728 68.040001000000003728 68.040001000000003728 68.040001000000003728 68.040001000000003728 68.040001000000003728 68.040001000000003728 68.040001000000003728 68.040001000000003728 68.040001000000003728 68.040001000000003728 68.040001000000003728 68.040001000000003728 68.040001000000003728 68.040001000000003728 68.040001000000003728 68.040001000000003728 68.040001000000003728 68.040001000000003728 68.040001000000003728 68.040001000000003728 68.040001000000003728 68.040001000000003728 68.040001000000003728 68.040999999999996817 68.040999999999996817 68.040001000000003728 68.040001000000003728 68.040999999999996817 68.040001000000003728 68.040001000000003728 68.040001000000003728 68.040001000000003728 68.040001000000003728 68.040001000000003728 68.040001000000003728 68.040001000000003728 68.040001000000003728 68.040001000000003728 68.040001000000003728 68.040001000000003728 68.040001000000003728
74.570701999999997156 74.619063999999994508 74.808646999999993454 74.595626999999993245 70.177443999999994162 68.701424000000002934 68.040001000000003728 68.040001000000003728 68.040001000000003728 68.040001000000003728 68.040001000000003728 68.040001000000003728 68.040999999999996817 68.040999999999996817 68.040999999999996817 68.042000000000001592 68.042000000000001592 68.042000000000001592 68.042000000000001592 68.042000000000001592 68.042000000000001592 68.042000000000001592 68.042000000000001592 68.042000000000001592 68.042000000000001592 68.042000000000001592 68.040001000000003728 68.040001000000003728 68.040001000000003728 68.040001000000003728 68.040001000000003728 68.040001000000003728 68.040001000000003728 68.040001000000003728 68.040001000000003728 68.040001000000003728 68.040001000000003728 68.040001000000003728 68.040001000000003728 68.040001000000003728 68.040001000000003728 68.040001000000003728 68.040001000000003728 68.040001000000003728 68.040001000000003728 68.040001000000003728 68.040001000000003728 68.040001000000003728 68.040001000000003728 68.040001000000003728 68.040001000000003728 68.040001000000003728 68.040001000000003728 68.040001000000003728 68.040001000000003728 68.040001000000003728 68.040001000000003728 68.040001000000003728 68.040001000000003728 68.040001000000003728 68.040001000000003728 68.040001000000003728 68.040001000000003728 68.040001000000003728 68.040001000000003728 68.040001000000003728 68.040001000000003728 68.040001000000003728 68.039000999999998953 68.040001000000003728 68.040001000000003728 68.040001000000003728 68.040001000000003728 68.040001000000003728 68.040001000000003728 68.040001000000003728 68.040001000000003728 68.040001000000003728 68.040001000000003728 68.040001000000003728 68.040001000000003728 68.040001000000003728 68.040001000000003728 68.040001000000003728 68.040001000000003728 68.040001000000003728
74.433707999999995764 74.367935000000002788 74.608276000000003592 75.180617999999995504 72.195189999999996644 68.040001000000003728 68.040001000000003728 68.040001000000003728 68.040001000000003728 68.040001000000003728 68.040001000000003728 68.040999999999996817 68.040999999999996817 68.040999999999996817 68.040999999999996817 68.042000000000001592 68.042000000000001592 68.042000000000001592 68.042000000000001592 68.042000000000001592 68.042000000000001592 68.042000000000001592 68.042000000000001592 68.042000000000001592 68.040999999999996817 68.042000000000001592 68.040001000000003728 68.040001000000003728 68.040001000000003728 68.040001000000003728 68.040001000000003728 68.040001000000003728 68.040001000000003728 68.040001000000003728 68.040001000000003728 68.040001000000003728 68.040001000000003728 68.040001000000003728 68.040001000000003728 68.040001000000003728 68.040001000000003728 68.040001000000003728 68.040001000000003728 68.040001000000003728 68.040001000000003728 68.040001000000003728 68.040001000000003728 68.040001000000003728 68.040001000000003728 68.039000999999998953 68.039000999999998953 68.039000999999998953 68.040001000000003728 68.040001000000003728 68.040001000000003728 68.040001000000003728 68.040001000000003728 68.040001000000003728 68.040001000000003728 68.040001000000003728 68.040001000000003728 68.040001000000003728 68.040001000000003728 68.040001000000003728 68.040001000000003728 68.040001000000003728 68.040001000000003728 68.040001000000003728 68.039000999999998953 68.039000999999998953 68.039000999999998953 68.039000999999998953 68.039000999999998953 68.039000999999998953 68.039000999999998953 68.039000999999998953 68.040001000000003728 68.040001000000003728 68.040001000000003728 68.040001000000003728 68.040001000000003728 68.040001000000003728 68.040001000000003728 68.040001000000003728 68.040001000000003728 68.040001000000003728
74.08589200000000119 73.81179000000000201 74.371360999999993169 72.20503999999999678 68.040001000000003728 68.040001000000003728 68.040001000000003728 68.040001000000003728 68.040001000000003728 68.040001000000003728 68.040001000000003728 68.040001000000003728 68.040999999999996817 68.040001000000003728 68.040001000000003728 68.042000000000001592 68.042000000000001592 68.042000000000001592 68.042000000000001592 68.040999999999996817 68.040999999999996817 68.040999999999996817 68.040999999999996817 68.040999999999996817 68.040999999999996817 68.040999999999996817 68.040587999999999624 68.040001000000003728 68.040001000000003728 68.040001000000003728 68.040001000000003728 68.040001000000003728 68.040001000000003728 68.040001000000003728 68.040001000000003728 68.040001000000003728 68.040001000000003728 68.040001000000003728 68.040001000000003728 68.040001000000003728 68.040001000000003728 68.039000999999998953 68.039000999999998953 68.040001000000003728 68.039000999999998953 68.039000999999998953 68.039000999999998953 68.039000999999998953 68.039000999999998953 68.039000999999998953 68.039000999999998953 68.039000999999998953 68.040001000000003728 68.040001000000003728 68.040001000000003728 68.040001000000003728 68.040001000000003728 68.040001000000003728 68.040001000000003728 68.040001000000003728 68.040001000000003728 68.040001000000003728 68.040001000000003728 68.040001000000003728 68.040001000000003728 68.040001000000003728 68.040001000000003728 68.040001000000003728 68.039000999999998953 68.039000999999998953 68.039000999999998953 68.039000999999998953 68.039000999999998953 68.039000999999998953 68.039000999999998953 68.039000999999998953 68.039000999999998953 68.039000999999998953 68.039000999999998953 68.039000999999998953 68.039000999999998953 68.039000999999998953 68.039000999999998953 68.039000999999998953 68.040001000000003728 68.040001000000003728
73.75448599999999999 73.764190999999996734 74.12902800000000525 71.675514000000006831 68.039000999999998953 68.039000999999998953 68.039000999999998953 68.039000999999998953 68.039000999999998953 68.040001000000003728 68.040001000000003728 68.040001000000003728 68.040001000000003728 68.040001000000003728 68.040001000000003728 68.040999999999996817 68.040999999999996817 68.040999999999996817 68.083365999999998053 68.040999999999996817 68.593772999999998774 68.942497000000003027 69.141868999999999801 68.441772000000000276 68.272728000000000748 68.711997999999994136 69.034820999999993774 68.194023000000001389 68.468261999999995737 68.198288000000005127 68.2678680000000071 68.316895000000002369 68.394958000000002585 68.349875999999994747 68.267159000000006586 68.040001000000003728 68.039000999999998953 68.039000999999998953 68.039000999999998953 68.039000999999998953 68.039000999999998953 68.039000999999998953 68.039000999999998953 68.039000999999998953 68.039000999999998953 68.039000999999998953 68.039000999999998953 68.039000999999998953 68.039000999999998953 68.039000999999998953 68.039000999999998953 68.039000999999998953 68.040001000000003728 68.040001000000003728 68.040001000000003728 68.040001000000003728 68.040001000000003728 68.040001000000003728 68.040001000000003728 68.040001000000003728 68.040001000000003728 68.040001000000003728 68.040001000000003728 68.040001000000003728 68.040001000000003728 68.040001000000003728 68.040001000000003728 68.040001000000003728 68.039000999999998953 68.039000999999998953 68.039000999999998953 68.039000999999998953 68.039000999999998953 68.039000999999998953 68.039000999999998953 68.039000999999998953 68.039000999999998953 68.039000999999998953 68.039000999999998953 68.039000999999998953 68.039000999999998953 68.039000999999998953 68.039000999999998953 68.039000999999998953 68.039000999999998953 68.039000999999998953
74.489959999999996398 74.187256000000004974 73.955246000000002482 68.039000999999998953 68.039000999999998953 68.039000999999998953 68.039000999999998953 68.039000999999998953 68.039000999999998953 68.040001000000003728 68.040001000000003728 68.040001000000003728 68.040001000000003728 68.040001000000003728 68.040001000000003728 68.040999999999996817 68.040999999999996817 69.065926000000004592 69.875183000000006928 68.529251000000002136 73.215012000000001535 71.930404999999993265 71.910354999999995584 71.506065000000006648 71.714423999999993953 73.42281300000000499 71.456772000000000844 72.079528999999993744 72.028557000000006383 71.29858400000000529 70.695769999999996003 69.050826999999998179 69.382926999999995132 69.398903000000004226 68.412987000000001103 68.351569999999995275 68.176079000000001429 68.31388099999999497 68.498215000000001851 68.785636999999994146 68.837502000000000635 68.763557000000005814 68.039000999999998953 68.039000999999998953 68.039000999999998953 68.039000999999998953 68.039000999999998953 68.039000999999998953 68.039000999999998953 68.039000999999998953 68.039000999999998953 68.039000999999998953 68.040001000000003728 68.040001000000003728 68.040001000000003728 68.040001000000003728 68.040001000000003728 68.040001000000003728 68.040001000000003728 68.040001000000003728 68.040001000000003728 68.040001000000003728 68.040001000000003728 68.040001000000003728 68.039000999999998953 68.039000999999998953 68.039000999999998953 68.039000999999998953 68.039000999999998953 68.039000999999998953 68.039000999999998953 68.039000999999998953 68.039000999999998953 68.039000999999998953 68.039000999999998953 68.039000999999998953 68.039000999999998953 68.039000999999998953 68.039000999999998953 68.039000999999998953 68.039000999999998953 68.039000999999998953 68.039000999999998953 68.039000999999998953 68.039000999999998953 68.038002000000005864
75.017653999999993175 73.630684000000002243 68.222571999999999548 68.039000999999998953 68.039000999999998953 68.039000999999998953 68.039000999999998953 68.039000999999998953 68.039000999999998953 68.040001000000003728 68.040001000000003728 68.040001000000003728 68.040001000000003728 68.040001000000003728 68.341712999999998601 69.379440000000002442 70.69785299999999495 75.630508000000006064 73.99591800000000319 74.678039999999995757 74.640022000000001867 74.669715999999993983 74.94812000000000296 72.683830000000000382 73.327140999999997462 74.801948999999993362 75.661720000000002528 76.199280000000001678 73.812263000000001512 72.382996000000005665 72.791617999999999711 73.413284000000004426 74.13165300000000002 71.116669000000001688 70.226798999999999751 70.350075000000003911 71.306122000000002004 72.156433000000006928 72.782471000000001027 70.834961000000006948 70.859795000000005416 70.177291999999994232 69.869536999999994009 70.002182000000004791 68.455650000000005662 68.303512999999995259 68.083183000000005336 68.09637499999999477 68.101471000000003642 68.039000999999998953 68.039000999999998953 68.038002000000005864 68.040001000000003728 68.040001000000003728 68.040001000000003728 68.040001000000003728 68.039000999999998953 68.039000999999998953 68.039000999999998953 68.039000999999998953 68.039000999999998953 68.039000999999998953 68.039000999999998953 68.039000999999998953 68.039000999999998953 68.039000999999998953 68.039000999999998953 68.039000999999998953 68.039000999999998953 68.039000999999998953 68.039000999999998953 68.039000999999998953 68.039000999999998953 68.039000999999998953 68.039000999999998953 68.039000999999998953 68.039000999999998953 68.039000999999998953 68.039000999999998953 68.039000999999998953 68.039000999999998953 68.039000999999998953 68.039000999999998953 68.039000999999998953 68.039000999999998953 68.038002000000005864
74.897223999999994248 70.314010999999993601 68.039000999999998953 68.039000999999998953 68.039000999999998953 68.039000999999998953 68.039000999999998953 68.039000999999998953 68.039000999999998953 68.040001000000003728 68.040001000000003728 68.040001000000003728 68.151672000000004914 69.167229000000006067 74.243651999999997315 71.364036999999996169 76.662368999999998209 76.2681350000000009 76.22726400000000524 76.238617000000004964 75.462165999999996302 76.195044999999993252 76.524658000000002289 76.837151000000005752 78.905945000000002665 77.246398999999996704 77.441436999999993418 77.440360999999995784 77.567795000000003824 78.522728000000000748 76.372542999999993185 77.768531999999993332 78.464920000000006439 78.630020000000001801 78.50743900000000508 74.866874999999993179 75.710669999999993252 75.775756999999998698 75.542884999999998286 75.617278999999996358 76.016120999999998276 74.202904000000003748 74.420212000000006469 75.178482000000002472 74.836838000000000193 71.753319000000004735 68.160042000000004236 68.26069599999999582 68.240386999999998352 68.926124999999998977 69.740043999999997482 68.07543900000000292 68.057204999999996176 68.125739999999993302 68.200890000000001123 68.218506000000004974 68.039000999999998953 68.039000999999998953 68.039000999999998953 68.039000999999998953 68.039000999999998953 68.039000999999998953 68.039000999999998953 68.039000999999998953 68.039000999999998953 68.039000999999998953 68.039000999999998953 68.039000999999998953 68.039000999999998953 68.039000999999998953 68.039000999999998953 68.039000999999998953 68.039000999999998953 68.039000999999998953 68.039000999999998953 68.039000999999998953 68.039000999999998953 68.039000999999998953 68.039000999999998953 68.038002000000005864 68.038002000000005864 68.039000999999998953 68.038002000000005864 68.038002000000005864 68.038002000000005864 68.038002000000005864
73.132323999999997 68.038002000000005864 68.039000999999998953 68.039000999999998953 68.039000999999998953 68.039000999999998953 68.039000999999998953 68.039000999999998953 68.039000999999998953 68.039000999999998953 68.174553000000003067 68.796722000000002595 69.331283999999996581 74.486198000000001684 76.09744999999999493 76.997001999999994837 77.144301999999996156 76.863792000000003668 77.045524999999997817 77.090225000000003774 77.086280999999999608 76.663612000000000535 76.980530000000001678 78.354240000000004329 79.124199000000004389 78.352760000000003515 76.854186999999996033 77.615256999999999721 78.289771999999999252 78.766022000000006642 79.544524999999993042 82.035690000000002442 82.21359300000000303 81.371116999999998143 80.833327999999994518 80.216324000000000183 79.218468000000001439 78.176940999999999349 77.228095999999993637 77.19718199999999797 78.564567999999994186 79.35151700000000119 77.86980400000000202 79.616675999999998226 79.441765000000003738 74.083336000000002741 72.996407000000004928 72.756698999999997568 69.884628000000006409 71.337729999999993424 71.777343999999999369 71.663673000000002844 70.866646000000002914 68.360504000000005931 68.594657999999995468 68.573868000000004486 68.039000999999998953 68.039000999999998953 68.039000999999998953 68.039000999999998953 68.039000999999998953 68.039000999999998953 68.039000999999998953 68.039000999999998953 68.039000999999998953 68.039000999999998953 68.039000999999998953 68.039000999999998953 68.039000999999998953 68.039000999999998953 68.039000999999998953 68.039000999999998953 68.038002000000005864 68.039000999999998953 68.038002000000005864 68.038002000000005864 68.038002000000005864 68.038002000000005864 68.038002000000005864 68.038002000000005864 68.038002000000005864 68.038002000000005864 68.038002000000005864 68.038002000000005864 68.038002000000005864 68.038002000000005864
68.058516999999994823 68.038002000000005864 68.038002000000005864 68.038002000000005864 68.038002000000005864 68.038002000000005864 68.038002000000005864 68.039000999999998953 68.039000999999998953 68.058777000000006296 69.663651000000001545 71.10065500000000327 73.506393000000002758 75.679023999999998296 76.180199000000001774 77.154510000000001924 77.288619999999994548 77.563857999999996196 78.15082599999999502 77.744445999999996388 77.190040999999993687 76.764717000000004532 76.423569000000000528 77.491341000000005579 78.468352999999993358 76.820221000000003642 76.314773999999999887 76.317588999999998123 77.331519999999997594 78.499701999999999202 80.322731000000004542 81.66704599999999914 82.48075099999999793 82.152022999999999797 81.45174400000000503 80.056792999999998983 79.365729999999999222 78.726958999999993694 78.200226000000000681 78.021309000000002243 79.697540000000003602 80.519942999999997824 81.103538999999997827 81.394012000000003582 81.516532999999995468 78.199462999999994395 76.577353999999999701 75.630279999999999063 75.904906999999994355 76.10463699999999676 75.100661999999999807 74.95996900000000096 72.411049000000005549 72.541640999999998485 73.053741000000002259 70.915604000000001861 69.756720999999998867 71.009940999999997757 68.061690999999996166 68.062393000000000143 68.152480999999994538 68.117844000000005167 68.039000999999998953 68.039000999999998953 68.038002000000005864 68.039000999999998953 68.039000999999998953 68.038002000000005864 68.038002000000005864 68.038002000000005864 68.038002000000005864 68.038002000000005864 68.038002000000005864 68.038002000000005864 68.038002000000005864 68.038002000000005864 68.038002000000005864 68.038002000000005864 68.038002000000005864 68.038002000000005864 68.038002000000005864 68.038002000000005864 68.038002000000005864 68.038002000000005864 68.038002000000005864 68.038002000000005864
68.038002000000005864 68.038002000000005864 68.038002000000005864 68.038002000000005864 68.038002000000005864 68.038002000000005864 68.038002000000005864 68.053391000000004851 68.278152000000005728 68.039000999999998953 71.930687000000006037 72.950050000000004502 75.269538999999994644 76.18914800000000298 76.828963999999999146 77.62560999999999467 77.553321999999994318 78.178214999999994461 78.367316999999999894 78.452399999999997249 78.231543999999999528 77.176353000000005977 76.885779999999996903 77.555794000000005894 78.09323100000000295 77.035713000000001216 76.187079999999994584 76.464836000000005356 77.026122999999998342 77.854523000000000366 79.859116000000000213 81.241737000000000535 82.273605000000003429 81.94605300000000625 81.389610000000004675 79.923034999999998718 79.384185999999999694 78.27979299999999796 78.18518100000000004 78.274315000000001419 79.642737999999994258 80.722701999999998179 80.965782000000004359 81.16033199999999681 81.429558000000000106 80.281402999999997405 78.406975000000002751 77.213120000000003529 76.907661000000004492 76.140045000000000641 76.253119999999995571 77.099045000000003824 75.590546000000003346 75.596535000000002924 76.487862000000006901 76.561188000000001352 75.975020999999998139 74.27003499999999292 74.575767999999996505 74.903969000000003575 73.08556400000000508 71.129577999999995086 68.084594999999993092 68.038337999999995986 68.038002000000005864 68.038002000000005864 68.038002000000005864 68.038002000000005864 68.038002000000005864 68.038002000000005864 68.038002000000005864 68.038002000000005864 68.038002000000005864 68.038002000000005864 68.038002000000005864 68.038002000000005864 68.038002000000005864 68.038002000000005864 68.038002000000005864 68.038002000000005864 68.038002000000005864 68.038002000000005864 68.038002000000005864 68.038002000000005864 68.038002000000005864 68.038002000000005864
68.038002000000005864 68.038002000000005864 68.038002000000005864 68.038002000000005864 68.038002000000005864 68.038002000000005864 68.038002000000005864 68.580605000000005589 68.22601299999999469 71.214950999999999226 72.370238999999997986 73.348686000000000718 75.699257000000002904 76.536574999999999136 77.764893000000000711 78.229797000000004914 78.620215999999999212 78.803107999999994604 78.524437000000006037 78.954109000000002538 79.106300000000004502 79.011870999999999299 78.880447000000003754 78.071770000000000778 78.050979999999995584 77.495009999999993511 77.01405300000000409 76.71781199999999501 76.793823000000003276 78.477356000000000336 79.773262000000002558 80.994270000000000209 81.959282000000001744 81.607346000000006825 80.270103000000005977 79.4987339999999989 78.781341999999995096 77.813750999999996338 77.942535000000006562 78.336394999999996003 78.901816999999994096 79.326363000000000625 79.71823100000000295 80.628212000000004878 80.894424000000000774 79.890822999999997478 78.38113400000000297 77.044494999999997731 76.854125999999993724 76.138892999999995936 76.321235999999998967 78.530991000000000213 79.655738999999996963 80.076340000000001851 78.565513999999993189 78.643569999999996867 77.22666900000000112 76.860748000000000957 76.893219000000001984 76.324523999999996704 74.969939999999994029 73.146354999999999791 68.53744500000000528 68.038002000000005864 68.038002000000005864 68.038002000000005864 68.038002000000005864 68.039687999999998169 68.039848000000006323 68.038002000000005864 68.038002000000005864 68.038002000000005864 68.038002000000005864 68.038002000000005864 68.038002000000005864 68.038002000000005864 68.038002000000005864 68.038002000000005864 68.038002000000005864 68.038002000000005864 68.038002000000005864 68.037002999999998565 68.037002999999998565 68.037002999999998565 68.038002000000005864 68.038002000000005864
68.038002000000005864 68.038002000000005864 68.038002000000005864 68.038002000000005864 68.038002000000005864 68.038002000000005864 68.038002000000005864 68.132523000000006164 71.926085999999997966 72.882332000000005223 72.829314999999994029 74.611450000000004934 75.671570000000002665 76.63370500000000618 78.410674999999997681 78.9997330000000062 79.21935999999999467 79.042525999999995179 78.689544999999995412 79.011298999999993953 79.625427000000001954 79.54758499999999799 79.454323000000002253 79.183227999999999724 78.579323000000002253 77.94119999999999493 77.348595000000003097 77.278853999999995494 77.540779000000000565 79.621605000000002406 79.939896000000004506 81.987862000000006901 81.913994000000002416 81.231064000000003489 79.826935000000005971 79.149512999999998897 78.009108999999995149 77.73034699999999475 77.692856000000006134 77.995986999999999512 78.422843999999997777 79.059959000000006313 79.213515999999998485 79.371437000000000239 79.346046000000001186 79.153503000000000611 77.308136000000004628 76.832442999999997824 76.091483999999994126 75.87758599999999376 76.414985999999998967 78.844429000000005203 80.096466000000006602 80.115356000000005565 80.175865000000001714 80.541756000000006566 78.451683000000002721 77.475334000000003698 76.97323599999999999 76.922843999999997777 76.965880999999995993 76.552009999999995671 75.754349000000004821 68.765854000000004476 70.705878999999995926 73.227042999999994777 68.038002000000005864 68.038002000000005864 68.039931999999993195 68.046051000000005615 68.043259000000006154 68.038002000000005864 68.038002000000005864 68.037002999999998565 68.037002999999998565 68.037002999999998565 68.037002999999998565 68.037002999999998565 68.037002999999998565 68.037002999999998565 68.037002999999998565 68.037002999999998565 68.037002999999998565 68.037002999999998565 68.037002999999998565 68.037002999999998565
68.037002999999998565 68.037002999999998565 68.038002000000005864 68.038002000000005864 68.038002000000005864 68.038002000000005864 68.674164000000004648 70.42463700000000415 72.377326999999993973 73.48886099999999999 74.001807999999996923 74.83272599999999386 75.503829999999993561 77.056411999999994578 78.032234000000002538 78.9846419999999938 79.318504000000004339 79.136909000000002834 78.372810000000001196 78.644958000000002585 79.182090999999999781 79.709784999999996558 79.72582199999999375 79.179855000000003429 78.967583000000004745 79.000564999999994598 78.562599000000005844 77.907784000000006586 79.219871999999995182 80.678032000000001744 81.656356999999999857 82.675017999999994345 82.05860900000000413 80.684578000000001907 79.845375000000004206 78.982262000000005742 78.179221999999995774 77.860031000000006429 78.073302999999995677 78.310471000000006825 78.583404999999999063 78.834084000000004266 78.854973000000001093 78.801513999999997395 78.55247500000000116 77.988174000000000774 76.486450000000004934 76.363388000000000488 75.379645999999993933 75.673034999999998718 76.147232000000002472 78.325630000000003861 79.902045999999998571 79.885215999999999781 80.010138999999995235 81.031799000000006572 80.850098000000002685 78.69119999999999493 77.814812000000003422 77.668448999999995408 78.117469999999997299 78.764731999999995082 79.979095000000000937 76.743813000000002944 75.236725000000006958 80.223517999999998551 78.458304999999995744 75.71677400000000091 68.062865999999999644 68.079323000000002253 68.04213699999999676 68.048370000000005575 68.057700999999994451 68.037170000000003256 68.037002999999998565 68.037002999999998565 68.037002999999998565 68.037002999999998565 68.037002999999998565 68.037002999999998565 68.037002999999998565 68.037002999999998565 68.037002999999998565 68.037002999999998565 68.037002999999998565 68.037002999999998565
68.037002999999998565 68.037002999999998565 68.037002999999998565 68.037002999999998565 68.038002000000005864 68.047943000000003622 69.892989999999997508 72.842560000000005971 73.891159000000001811 74.002373000000005732 74.471419999999994843 75.150542999999998983 75.493522999999996159 76.306670999999994365 77.482246000000003505 79.042839000000000738 79.2414320000000032 79.161490999999998053 78.183632000000002904 78.248558000000002721 79.12421399999999494 79.62070500000000095 80.100014000000001602 80.783271999999996638 79.625731999999999289 79.469138999999998418 78.967819000000005758 78.658630000000002269 79.536338999999998123 80.867988999999994348 82.958388999999996827 83.123901000000003592 82.746077999999997132 81.195296999999996501 80.012932000000006383 78.531447999999997478 78.360511999999999944 78.345695000000006303 78.845580999999995697 78.78527800000000525 79.115134999999995102 79.010406000000003246 78.602279999999993265 77.652389999999996917 77.909644999999997594 76.979904000000004771 76.27590200000000209 75.666213999999996531 75.135384000000001947 75.442863000000002671 76.484756000000004406 77.691956000000004678 79.072990000000004329 79.493492000000003372 79.892775999999997794 81.296570000000002665 81.607894999999999186 81.045471000000006256 80.464950999999999226 78.82352400000000614 78.737267000000002781 79.136443999999997345 81.51932499999999493 81.998115999999996006 81.634185999999999694 80.85055499999999995 79.964088000000003831 75.76629599999999698 73.5753480000000053 71.822570999999996388 68.338195999999996388 68.567558000000005336 69.055244000000001847 70.134735000000006266 70.099166999999994232 68.037002999999998565 68.037002999999998565 68.037002999999998565 68.037002999999998565 68.037002999999998565 68.037002999999998565 68.037002999999998565 68.037002999999998565 68.037002999999998565 68.037002999999998565 68.037002999999998565
68.037002999999998565 68.037002999999998565 68.037002999999998565 68.037002999999998565 68.038002000000005864 71.935698999999999614 73.118149000000002502 73.277184000000005426 74.410881000000003382 74.819541999999998438 75.644713999999993348 75.531188999999997691 75.761559000000005426 76.340102999999999156 77.097908000000003881 78.561667999999997392 79.168007000000002904 78.877425999999999817 78.225632000000004496 78.084671000000000163 79.052193000000002598 79.658905000000004293 81.577270999999996093 82.31907699999999295 82.4090269999999947 80.578902999999996837 79.424689999999998236 79.65419799999999384 80.578461000000004333 82.27003499999999292 83.79608899999999494 83.37525200000000325 82.274703999999999837 81.533691000000004578 80.83832599999999502 79.607635000000001924 78.614502000000001658 78.637611000000006811 78.989295999999995956 79.349991000000002828 80.191604999999995584 79.544028999999994767 78.3137660000000011 78.125327999999996109 78.653167999999993754 78.986832000000006815 76.374076999999999771 75.26606800000000419 74.907027999999996837 75.383255000000005452 76.581130999999999176 77.1540069999999929 78.677811000000005492 79.00243399999999383 79.762398000000004572 81.193702999999999292 81.59969300000000203 81.594855999999992946 80.805983999999995149 79.268410000000002924 79.015632999999994013 79.209418999999996913 81.406211999999996465 81.970046999999993886 80.642662000000001399 80.633240000000000691 81.435912999999999329 77.75105299999999886 75.968627999999995382 75.651009000000001947 76.352210999999996943 75.688743999999999801 71.633797000000001276 71.990852000000003841 70.91376499999999794 68.037002999999998565 68.037002999999998565 68.037002999999998565 68.037002999999998565 68.037002999999998565 68.037002999999998565 68.03600299999999379 68.037002999999998565 68.03600299999999379 68.037002999999998565 68.037002999999998565
68.037002999999998565 68.037002999999998565 68.037002999999998565 68.037002999999998565 68.038002000000005864 72.66278800000000615 73.81320999999999799 75.444678999999993607 74.955200000000004934 75.130881999999999721 75.966721000000006825 76.46221199999999385 76.820228999999997654 76.612114000000005376 77.165328999999999837 78.181235999999998398 78.65151199999999676 78.415290999999996302 78.078605999999993514 78.229011999999997329 79.272651999999993677 80.770927000000000362 83.766532999999995468 83.690430000000006316 82.840652000000005728 81.448188999999999282 80.585327000000006592 81.545921000000006984 81.724029999999999063 83.744681999999997402 83.614670000000003824 83.209327999999999292 82.398178000000001475 81.822593999999995162 80.794257999999999242 80.231583000000000538 79.667289999999994166 78.702217000000004532 78.970687999999995554 79.964522999999999797 80.745720000000005712 81.152771000000001322 80.560944000000006326 79.374565000000004034 82.094489999999993302 81.843269000000006486 80.152557000000001608 77.39833099999999888 74.973884999999995671 76.411163000000001944 76.604836000000005924 76.84884599999999466 76.473381000000003382 77.408516000000005874 79.947411000000002446 81.151404999999996903 81.120131999999998129 80.459029999999998495 80.686813000000000784 79.160270999999994501 78.734084999999993215 78.86393700000000706 79.762687999999997146 81.536713000000005991 80.478249000000005253 80.778785999999996648 82.372528000000002635 82.109084999999993215 82.393600000000006389 80.189055999999993674 80.455321999999995342 76.78521700000000294 74.61792800000000625 74.601128000000002771 70.702201999999999771 68.037002999999998565 68.03600299999999379 68.03600299999999379 68.03600299999999379 68.051085999999997966 68.086760999999995647 68.582542000000003668 68.03600299999999379 68.039276000000000977 68.231834000000006313 68.198966999999996119
68.037002999999998565 68.037002999999998565 68.037002999999998565 68.037002999999998565 68.906761000000003037 73.62559500000000412 74.184334000000006881 76.292609999999996262 76.478904999999997472 76.24517099999999914 76.273528999999996358 76.85066999999999382 77.209693999999998937 77.256675999999998794 77.611564999999998804 77.940665999999993119 78.414223000000006891 78.702286000000000854 78.62204699999999491 80.219048000000000798 79.849761999999998352 81.589400999999995179 84.813972000000006801 85.298614999999998076 84.420158000000000698 82.183311000000003332 81.16825099999999793 81.991112000000001103 82.830757000000005519 83.731239000000002193 83.534828000000004522 82.87413800000000208 82.682991000000001236 82.517059000000003266 81.697281000000003814 80.711196999999998525 79.32121999999999673 78.833777999999995245 78.9387660000000011 80.424987999999999033 81.065963999999993916 81.535499999999998977 81.282021000000000299 81.552170000000003824 83.439116999999995983 83.37758599999999376 80.040840000000002874 78.850539999999995189 77.885322999999999638 77.073463000000003831 76.637137999999993099 76.747817999999995209 76.500304999999997335 75.998451000000002864 75.982071000000004801 79.772141000000004851 79.797011999999995169 79.633979999999993993 79.438057000000000585 78.481742999999994481 78.402457999999995764 78.030822999999998046 78.44259599999999466 79.766913999999999874 80.480262999999993667 81.21830699999999581 83.377716000000006602 83.874908000000004904 84.712395000000000778 83.96942099999999698 81.707115000000001714 76.872185000000001764 73.932922000000004914 68.041861999999994737 68.03600299999999379 68.03600299999999379 68.03600299999999379 68.03600299999999379 68.03600299999999379 68.275063000000002944 68.800995000000000346 69.591819999999998458 71.510002000000000066 73.889397000000002436 74.517966999999998734 75.031531999999998561
68.03600299999999379 68.03600299999999379 68.03600299999999379 68.037002999999998565 72.215194999999994252 74.499626000000006343 76.517570000000006303 76.914351999999993836 77.308646999999993454 76.878844999999998322 76.97528800000000615 77.349936999999997056 77.272057000000003768 77.256111000000004196 77.78851299999999469 78.857544000000004303 81.866439999999997212 80.199959000000006881 81.109786999999997192 83.433563000000006582 84.588272000000003459 87.306824000000005981 86.137878000000000611 86.237082999999998378 85.161308000000005336 83.804085000000000605 82.64716300000000615 82.469368000000002894 83.619193999999993139 83.819655999999994833 83.717986999999993714 84.022819999999995844 83.269424000000000774 82.616112000000001103 82.010292000000006851 81.352424999999996658 79.821799999999996089 78.991225999999997498 79.904724000000001638 80.620582999999996332 81.215102999999999156 81.728249000000005253 81.612373000000005163 82.614822000000003754 82.737701000000001272 82.492164999999999964 81.643767999999994345 79.89616399999999885 78.102371000000005097 77.36648599999999476 76.798362999999994827 76.456001000000000545 76.435462999999998601 75.824546999999995478 76.000549000000006572 76.78633100000000411 77.91627499999999884 78.791038999999997827 78.453856999999999289 78.056206000000003087 77.725761000000005652 77.424407999999999674 77.555222000000000548 78.425194000000004735 79.97559400000000096 81.930260000000004084 82.885597000000004186 84.166420000000002233 83.293823000000003276 81.142487000000002695 76.140495000000001369 75.067038999999994076 72.727585000000004811 68.03600299999999379 68.03600299999999379 68.03600299999999379 68.03600299999999379 68.03600299999999379 68.03600299999999379 68.753264999999998963 70.636466999999996119 72.639213999999995508 75.544394999999994411 76.284385999999997807 76.559073999999995408 76.952079999999995152
68.03600299999999379 68.03600299999999379 68.03600299999999379 68.78416400000000408 71.445922999999993408 74.299003999999996495 77.11057999999999879 78.160408000000003881 78.184569999999993684 77.499695000000002665 77.467727999999993926 77.402489000000002761 77.264931000000004246 78.712090000000003442 78.447174000000003957 80.532882999999998219 85.221947000000000116 87.115791000000001532 89.827759000000000356 87.202765999999996893 88.435349000000002206 89.574950999999998658 89.570885000000004084 88.155769000000006486 85.933341999999996119 84.749756000000004974 83.870482999999993012 84.165099999999995362 84.528792999999993185 84.184653999999994767 84.005302000000000362 84.57061000000000206 84.697204999999996744 84.185805999999999472 82.533782999999999674 80.815017999999994913 80.140738999999996395 79.940285000000002924 81.33721199999999385 80.999076999999999771 81.576560999999998103 81.835434000000006449 82.31769599999999798 83.340667999999993754 82.663887000000002558 82.094138999999998418 81.969971000000001027 81.282021000000000299 79.192916999999994232 77.605759000000006154 76.515952999999996109 76.455673000000004436 76.512114999999994325 77.131645000000006007 76.64933000000000618 77.898833999999993694 77.934005999999996561 77.626243999999999801 77.185799000000002934 77.52755000000000507 77.323691999999994096 77.359099999999997976 77.229209999999994807 76.955794999999994843 78.922095999999996252 81.005675999999994019 80.908585000000002196 81.600960000000000605 78.93947599999999909 78.100296000000000163 74.72559400000000096 73.588310000000006994 68.03600299999999379 68.03600299999999379 68.03600299999999379 68.03600299999999379 68.03600299999999379 68.03600299999999379 68.558753999999993312 70.016807999999997492 72.842338999999995508 74.567276000000006775 76.977776000000005752 76.646866000000002828 76.521979999999999222 76.684555000000003133
68.03600299999999379 68.03600299999999379 68.03600299999999379 68.562325000000001296 70.178687999999993963 75.660399999999995657 77.467231999999995651 78.258544999999998026 78.43809500000000412 78.491264000000001033 78.430862000000004741 77.934685000000001764 78.173820000000006303 81.619736000000003173 84.794594000000003575 92.166656000000003246 89.344200000000000728 91.616844000000000392 94.117821000000006393 94.634331000000003087 95.217315999999996734 92.132369999999994548 92.093552000000002522 89.845839999999995484 88.126830999999995697 86.694191000000003555 85.500373999999993657 85.29067999999999472 85.335723999999999023 85.699370999999999299 85.222358999999997309 84.906661999999997192 85.93795799999999474 85.817611999999996897 85.327736000000001582 83.085280999999994833 81.211822999999995432 81.83953099999999381 82.455085999999994328 82.878035999999994488 82.850753999999994903 82.24248500000000206 83.514861999999993714 83.926215999999996598 84.19119999999999493 84.644729999999995584 82.744361999999995305 80.911804000000003612 79.680953999999999837 78.499199000000004389 77.011009000000001379 76.632041999999998438 77.003737999999998465 77.484909000000001811 77.832229999999995584 78.122887000000005742 77.962524000000001934 76.954384000000004562 76.652771000000001322 76.498954999999995152 76.712165999999996302 77.222297999999995 76.879363999999995372 76.850868000000005509 77.294380000000003861 77.827033999999997604 79.388817000000003077 79.552734000000000947 78.135329999999996176 77.05715200000000209 71.555144999999996003 71.602310000000002788 68.03600299999999379 68.03600299999999379 68.03600299999999379 68.035004000000000701 68.03600299999999379 68.036957000000001017 69.332085000000006403 76.173011999999999944 76.54549400000000503 77.215857999999997219 77.200226000000000681 76.850639000000001033 76.540794000000005326 76.467628000000004818
68.03600299999999379 68.03600299999999379 68.03600299999999379 68.288330000000001974 69.331467000000003509 74.204246999999995182 76.12776200000000415 78.174071999999995342 78.655899000000005117 78.702820000000002665 78.66996000000000322 79.125511000000003037 84.569618000000005509 84.929871000000005665 88.817863000000002671 97.873565999999996734 101.04270900000000211 103.12772400000000061 98.74148599999999476 98.206856000000001927 97.956435999999996511 97.965301999999994109 95.960341999999997142 91.760627999999996973 89.780838000000002808 87.656531999999998561 87.792869999999993524 87.450751999999994268 86.505936000000005492 86.995627999999996405 86.458534000000000219 86.669623999999998887 88.181472999999996887 87.68341800000000319 85.921974000000005844 84.689628999999996495 84.790558000000004313 85.358192000000002508 83.924582999999998378 84.169860999999997375 84.118354999999993993 84.17162299999999675 84.071274000000002502 84.299888999999993189 85.491660999999993464 85.99723799999999585 85.48370400000000302 82.050674000000000774 79.994483999999999924 78.10858899999999494 77.566901999999998907 77.495559999999997558 77.572806999999997402 77.49959599999999682 77.799582999999998378 77.880020000000001801 77.803687999999993963 77.15531199999999501 76.607215999999993983 76.193138000000004695 76.385002000000000066 76.72711200000000531 76.951430999999999472 76.906204000000002452 77.509925999999992996 77.508262999999999465 77.760643000000001734 78.655822999999998046 78.098449999999999704 75.838676000000006638 68.035004000000000701 68.035004000000000701 68.035004000000000701 68.035004000000000701 68.035004000000000701 68.035004000000000701 68.035004000000000701 68.82020599999999888 68.035004000000000701 77.109772000000006642 76.8991929999999968 77.989020999999993933 78.051483000000004608 77.190392000000002781 76.652580000000000382 76.507773999999997727
68.03600299999999379 68.03600299999999379 68.03600299999999379 68.03600299999999379 68.157073999999994385 71.291229000000001292 73.875725000000002751 77.51027700000000209 78.218643000000000143 78.008872999999994136 78.748726000000004888 79.986144999999993388 87.919219999999995707 93.152977000000007024 105.17555199999999616 103.95269000000000403 107.3024599999999964 108.17684900000000425 107.04928599999999506 103.23119400000000212 100.03618600000000072 99.953331000000005702 97.947693000000001007 96.413726999999994405 91.211112999999997442 88.355911000000006084 88.551743000000001871 88.636100999999996475 89.153525999999999385 90.127548000000004436 87.745650999999995179 87.740097000000005778 88.679839999999998668 88.931640999999999053 88.164848000000006323 86.034889000000006831 86.659897000000000844 86.515045000000000641 86.219054999999997335 85.989097999999998478 85.287514000000001602 84.60151700000000119 84.304160999999993464 84.434227000000007024 85.377937000000002854 86.499442999999999415 84.535506999999995514 82.255881999999999721 80.29396099999999592 79.741951000000000249 78.38857299999999384 78.131111000000004196 77.922447000000005346 77.478049999999996089 76.960914999999999964 77.502707999999998378 77.481894999999994411 77.246193000000005213 76.875007999999994013 75.845023999999995112 76.07550000000000523 76.682914999999994166 76.884513999999995804 77.070717000000001917 77.553771999999995046 77.625923000000000229 78.422675999999995611 78.895813000000003967 78.776283000000006496 72.966705000000004588 68.035004000000000701 68.035004000000000701 68.035004000000000701 68.035004000000000701 68.035004000000000701 68.035004000000000701 68.035004000000000701 68.035004000000000701 73.896332000000001017 74.28366900000000328 77.00389099999999587 78.065224000000000615 78.40460199999999702 77.214684000000005426 76.878997999999995727 76.594748999999993089
68.035004000000000701 68.035004000000000701 68.03600299999999379 68.03600299999999379 68.133842000000001349 68.028343000000006668 71.990844999999993092 76.37791400000000408 77.380058000000005336 78.278709000000006313 81.109740999999999644 90.036834999999996398 91.599770000000006576 97.655876000000006343 110.71340899999999863 115.65422100000000682 118.79231299999999294 112.92721600000000137 110.54099300000000028 105.06589499999999759 102.95411699999999655 101.21583599999999592 99.359443999999996322 98.117851000000001704 92.960526000000001545 89.430098999999998455 89.586066999999999894 89.729270999999997116 90.499549999999999272 91.607780000000005316 91.042075999999994451 90.66085099999999386 89.404610000000005243 89.238540999999997894 88.178627000000005864 86.742026999999993109 87.411124999999998408 87.240691999999995687 86.78916900000000112 86.437438999999997691 85.890427000000002522 84.619315999999997757 84.475548000000003412 85.357864000000006399 87.259392000000005396 88.10646099999999592 83.57199099999999703 82.083511000000001445 80.030151000000003592 80.146529999999998495 80.222320999999993774 78.962112000000004741 78.208847000000005778 77.079689000000001897 76.948845000000005712 77.143555000000006316 77.241364000000004353 77.201233000000001994 76.256180000000000518 75.749793999999994298 75.664375000000006821 76.114243000000001871 76.667343000000002462 77.200546000000002778 77.417350999999996475 77.71374500000000296 78.83709699999999998 79.146805000000000518 78.957442999999997824 75.766356999999999289 76.335967999999994049 68.035004000000000701 68.117515999999994847 68.035004000000000701 68.035004000000000701 68.035004000000000701 68.035004000000000701 68.035004000000000701 72.979088000000004399 71.471146000000004506 72.378021000000003937 75.241776000000001545 78.524535999999997671 76.815849000000000046 76.567718999999996754 75.938064999999994598
68.034194999999996867 68.034194999999996867 68.034194999999996867 68.03600299999999379 68.064293000000006373 68.03600299999999379 69.51180999999999699 73.992332000000004655 77.48654200000000003 79.330703999999997222 83.837203999999999837 94.46564499999999498 100.36550900000000297 112.76403000000000532 115.4162900000000036 119.99324799999999414 122.17981000000000336 119.98508499999999799 113.08666200000000401 107.18217500000000086 104.82387500000000102 102.47494500000000528 101.81585699999999406 98.524260999999995647 94.214325000000002319 90.194580000000001974 89.560569999999998458 91.498817000000002508 93.648612999999997442 92.867744000000001847 92.559607999999997219 91.857108999999994126 91.389694000000005758 90.473572000000004323 88.259444999999999482 86.906197000000005914 87.330093000000005077 87.742217999999994049 87.517653999999993175 86.716804999999993697 85.976142999999993322 84.283096000000000458 83.932982999999993012 85.199912999999995122 87.65546399999999494 85.099907000000001744 82.459273999999993521 81.515663000000003535 80.877350000000006958 80.423805000000001542 79.936661000000000854 79.099297000000007074 78.494033999999999196 77.540512000000006765 77.066162000000005605 77.302834000000004266 77.1023179999999968 76.623198999999999614 75.816505000000006476 75.657814000000001897 75.66652700000000209 75.812325000000001296 75.922325000000000728 76.180023000000005595 77.120598000000001093 78.795563000000001352 79.719963000000007014 80.313873000000000957 79.773842000000001917 78.97927900000000534 75.702820000000002665 77.354033999999998628 79.474784999999997126 77.896286000000003469 69.364791999999994232 69.406609000000003107 69.916327999999992926 69.342078999999998246 68.033996999999999389 68.035004000000000701 70.24327099999999291 69.687195000000002665 73.54616500000000201 72.448066999999994664 75.92141700000000526 75.489898999999994089
68.033882000000005519 68.033996999999999389 68.033996999999999389 68.035004000000000701 68.064171000000001754 68.035324000000002798 68.417038000000005127 72.216042000000001622 79.175224000000000046 85.384879999999995448 98.012023999999996704 99.0410839999999979 104.61124399999999923 115.85780300000000409 120.80522899999999709 124.64064000000000476 124.38500999999999408 120.9660339999999934 115.74266099999999824 112.90541100000000085 107.72349499999999978 103.88233900000000176 102.90793600000000652 100.24274400000000185 97.258621000000005097 92.394073000000005891 90.979957999999996332 92.901222000000004186 94.859825000000000728 95.037109000000000947 94.816329999999993561 93.303832999999997355 92.971642000000002781 92.246384000000006154 90.241164999999995189 87.337868000000000279 87.149612000000004741 87.978470000000001505 87.638480999999998744 86.856926000000001409 84.674599000000000615 83.943008000000006064 83.590637000000000967 83.546654000000003748 82.832260000000005107 80.977858999999995149 81.665131000000002359 81.359061999999994441 81.26537299999999675 81.083899999999999864 80.252785000000002924 79.246727000000007024 78.205048000000005004 77.844695999999999003 77.623992999999998688 77.684783999999993398 77.145743999999993434 76.018501000000000545 75.773696999999998525 75.697395000000000209 75.729500000000001592 75.678482000000002472 75.729691000000002532 75.945640999999994847 76.730553000000000452 80.144881999999995514 80.738418999999993275 81.289917000000002645 80.794205000000005157 80.341789000000005672 79.889938000000000784 79.534301999999996724 80.034369999999995571 80.523566999999999894 81.739448999999993362 83.041854999999998199 75.556128999999998541 71.457024000000004094 69.223456999999996242 68.640906999999998561 68.033996999999999389 68.033996999999999389 69.049781999999993332 68.275131000000001791 70.136200000000002319 74.340500000000005798
68.033767999999994913 68.033767999999994913 68.033767999999994913 68.035004000000000701 68.061027999999993199 68.047447000000005346 68.03755999999999915 75.726273000000006164 81.731949000000000183 89.382874000000001047 102.18369300000000521 107.1561580000000049 115.82069400000000314 117.85025000000000261 121.70664200000000221 123.2290569999999974 121.40280199999999411 119.45414700000000607 116.70533000000000357 114.53964200000000062 110.16056799999999782 107.98752600000000257 103.90854600000000119 101.82774399999999559 99.509795999999994365 95.943068999999994162 96.39331099999999708 96.939194000000000528 96.041152999999994222 95.90557900000000302 96.115416999999993664 96.568152999999995245 97.810569999999998458 94.718681000000003678 92.2873079999999959 87.526550000000000296 86.652091999999996119 87.796822000000005914 87.279228000000003362 86.397514000000001033 84.247664999999997804 83.27202599999999677 82.880332999999993149 82.755516000000000076 81.727951000000004456 80.653274999999993611 80.881020000000006576 81.449341000000003987 81.552077999999994518 81.078689999999994598 80.54608899999999494 79.79647099999999682 78.843956000000005702 78.222678999999999405 78.090950000000006526 78.180794000000005894 78.161293000000000575 77.410133000000001857 76.230575999999999226 76.074081000000006725 76.129088999999993348 76.176697000000004323 76.078345999999996252 75.959121999999993591 78.662086000000002173 80.067077999999995086 81.047591999999994528 81.914733999999995717 81.488899000000003525 81.08529699999999707 80.94223800000000324 80.854134000000001947 80.602424999999996658 80.670319000000006326 82.290694999999999482 83.150726000000005911 83.746735000000001037 80.130898000000001957 75.31690999999999292 70.425995000000000346 69.599449000000007004 68.784049999999993474 68.059478999999996063 68.033996999999999389 70.188156000000006429 75.374588000000002808
68.033653000000001043 68.033653000000001043 68.033653000000001043 68.033653000000001043 68.035004000000000701 68.069564999999997212 68.066406000000000631 78.041252000000000066 88.404228000000003362 103.68255600000000527 106.04901900000000126 110.20455900000000327 117.5960850000000022 120.00175500000000284 121.70123300000000199 121.49937400000000309 120.80995900000000631 119.90982099999999377 118.08182499999999493 114.37141400000000147 112.15137500000000159 109.68910999999999945 104.99530799999999431 103.37543499999999597 99.629784000000000788 97.769005000000007044 97.87783799999999701 97.306586999999993282 96.792854000000005499 96.86723299999999881 97.110152999999996837 98.116828999999995631 99.845955000000003565 98.85101299999999469 91.189109999999999445 87.516991000000004419 86.698348999999993225 86.979705999999993082 85.26528199999999913 84.473511000000002014 83.93698100000000295 83.021736000000004196 82.736762999999996282 82.364670000000003824 80.861487999999994258 80.550117000000000189 80.679053999999993607 81.395447000000004323 81.881148999999993521 81.694625999999999522 80.922568999999995754 79.576378000000005386 79.20596299999999701 79.084450000000003911 79.077950000000001296 78.706260999999997807 78.499938999999997691 78.144142000000002213 77.662018000000003326 76.992844000000005167 76.463470000000000937 76.650276000000005183 76.523758000000000834 76.471457999999998378 78.052245999999996684 79.698593000000002462 81.405868999999995594 81.844414000000000442 82.183967999999993026 82.594230999999993514 82.049126000000001113 81.498001000000002136 81.176117000000004964 81.405929999999997904 82.778351000000000681 83.185989000000006399 82.272391999999996415 80.45245400000000302 79.546135000000006698 80.591742999999993913 76.909019000000000688 68.148955999999998312 69.907639000000003193 68.668082999999995764 71.68380000000000507 73.282448000000002253
68.033195000000006303 68.033195000000006303 68.033310000000000173 68.033310000000000173 68.063025999999993587 68.429717999999994049 69.14702599999999677 80.154189999999999827 90.552520999999998708 105.94000200000000689 110.42649099999999862 116.48974599999999668 118.61963699999999733 120.499968999999993 121.36112199999999461 121.32394399999999735 120.94870000000000232 120.36008499999999799 118.64521000000000583 114.09621400000000335 113.67548399999999731 111.11437999999999704 106.67720799999999315 104.48946399999999812 100.5847090000000037 99.160178999999999405 98.293807999999998515 97.238792000000003668 96.636307000000002176 97.408028000000001612 98.935248999999998887 102.05823499999999626 100.76609000000000549 99.89967300000000705 92.367019999999996571 89.200873999999998887 87.999786000000000286 86.453995000000006144 84.801544000000006918 84.419524999999993042 84.225448999999997568 83.294043999999999528 82.812034999999994511 82.474341999999992936 81.088783000000006496 80.951949999999996521 81.128983000000005177 81.418930000000003133 81.990027999999995245 81.888641000000006898 81.471840000000000259 80.395675999999994588 79.57923900000000117 79.394722000000001572 79.364624000000006276 79.384131999999993923 79.224327000000002386 78.567070000000001073 77.761345000000005712 77.561012000000005173 77.480132999999995036 77.540390000000002146 76.961669999999998026 77.092194000000006326 77.867003999999994335 78.641022000000006642 80.006950000000003342 81.673302000000006728 82.433243000000004486 82.560149999999993042 82.502425999999999817 81.834236000000004196 81.482879999999994425 82.13673400000000413 83.002007000000006087 83.216576000000003432 82.246680999999995265 80.587433000000004313 80.340980999999999312 80.854827999999997701 81.713913000000005127 80.684044000000000096 73.616882000000003927 69.013480999999998744 77.389090999999993414 77.205512999999996282
68.021004000000004908 68.021004000000004908 68.021004000000004908 68.021004000000004908 68.035010999999997239 68.495025999999995747 73.62137599999999793 81.224243000000001302 91.062415999999998917 106.53988599999999565 110.59819799999999645 115.81121799999999666 118.43009899999999845 120.88760399999999606 121.13379700000000128 121.0621799999999979 120.10349999999999682 119.13485000000000014 114.22576100000000565 113.43286899999999662 113.39617200000000707 113.11103799999999353 111.73873899999999537 108.30625899999999717 103.01764699999999664 101.59548200000000406 99.902321000000000595 99.039992999999995504 99.46063999999999794 98.383606000000000336 99.746360999999993169 103.37869999999999493 104.01857800000000509 100.55503099999999961 94.590369999999992956 91.846656999999993332 89.984650000000002024 88.70423900000000117 85.843269000000006486 84.91600800000000504 85.148055999999996857 84.354918999999995322 83.992805000000004156 82.434119999999992956 81.437331999999997834 81.355262999999993667 81.536361999999996897 81.911902999999995245 82.338318000000001007 81.971869999999995571 81.576674999999994498 80.771918999999996913 80.387885999999994624 79.783287000000001399 79.458106999999998266 79.431777999999994222 79.43207599999999502 79.390784999999993943 79.006202999999999292 78.233276000000003592 78.075194999999993684 77.934775999999999385 77.798805000000001542 77.862869000000003439 78.013610999999997375 78.909576000000001272 78.89141100000000506 78.815269000000000688 79.576926999999997747 81.899795999999994933 81.534499999999994202 81.137985000000000468 80.648276999999993109 81.082663999999994076 82.835823000000004868 83.416839999999993438 82.83366399999999885 81.244522000000003459 80.205437000000003422 80.531029000000003748 80.14081600000000094 80.236237000000002695 80.243110999999998967 79.979056999999997402 78.811797999999996023 78.751541000000003123
68.019997000000003595 68.019997000000003595 68.019997000000003595 68.019997000000003595 68.019997000000003595 68.019997000000003595 73.916839999999993438 80.026886000000004628 95.884772999999995591 100.86487599999999532 104.88429999999999609 114.07696500000000128 116.98230700000000581 121.40886700000000076 120.76936299999999846 119.12238299999999924 118.58136700000000019 117.41249100000000283 113.2699659999999966 112.52127799999999525 113.77723699999999951 114.27491000000000554 114.08583799999999542 112.51165000000000305 111.46814000000000533 109.5806350000000009 103.94431299999999396 102.73188000000000386 102.39813999999999794 102.48545799999999417 103.64433300000000315 104.41759500000000571 105.80231499999999301 103.03837599999999952 99.971694999999996867 96.785972999999998478 92.775879000000003316 91.348686000000000718 88.000870000000006144 87.38871000000000322 89.254074000000002798 85.929694999999995275 84.736716999999998734 82.915863000000001648 82.544228000000003931 82.129654000000002156 81.89133499999999799 82.068595999999999435 82.24610900000000413 82.079666000000003123 81.57718699999999501 81.091766000000006898 80.765488000000004831 79.901413000000005127 79.649604999999993993 79.696342000000001349 79.604004000000003316 79.841301000000001409 79.86980400000000202 79.884124999999997385 79.788032999999998651 78.494820000000004256 78.285201999999998179 78.361587999999997578 78.705275999999997794 79.018219000000001984 78.195076000000000249 77.57509600000000205 77.721298000000004436 78.010955999999993082 79.476448000000004868 80.3001560000000012 80.118881000000001791 80.651436000000003901 81.598854000000002884 82.747069999999993684 83.089095999999997844 80.449866999999997574 79.951217999999997232 79.429962000000003286 79.298575999999997066 80.032936000000006516 79.8835679999999968 80.180901000000005752 80.676376000000004751 80.716994999999997162
68.019997000000003595 68.019997000000003595 68.019997000000003595 68.019997000000003595 68.019997000000003595 68.033996999999999389 71.170113000000000625 76.121178000000000452 91.781479000000004476 95.91152200000000505 103.1105270000000047 106.98798399999999731 111.17545300000000452 121.61183200000000681 120.97116900000000328 118.34931899999999416 117.68290700000000015 116.45867200000000707 113.16463500000000408 112.75231200000000342 113.80078100000000063 114.60233300000000156 116.04502899999999954 115.24040999999999713 114.73329900000000237 112.97450299999999856 111.97517399999999554 109.70117199999999968 105.67892500000000666 105.64297500000000696 106.20347599999999488 107.3909230000000008 109.45000500000000443 105.86956000000000699 102.85538499999999829 99.044464000000004944 97.874938999999997691 94.610847000000006801 90.970032000000003336 90.916267000000004828 92.111671000000001186 89.064835000000002196 84.449462999999994395 83.384056000000001063 83.096457999999998378 82.64106800000000419 82.56896199999999908 82.884979000000001292 82.315169999999994843 82.263390000000001123 82.165435999999999694 82.122208000000000538 81.64616399999999885 80.253944000000004166 80.036170999999995956 80.260506000000006566 80.891968000000005645 82.769035000000002356 81.358947999999998046 81.50045799999999474 81.310623000000006755 80.795471000000006256 79.760520999999997116 78.881943000000006805 79.311645999999996093 79.044089999999997076 78.116530999999994833 77.513267999999996505 77.230225000000004343 78.430297999999993408 79.073616000000001236 79.397766000000004283 79.564957000000006815 80.37956200000000706 81.489281000000005406 81.128769000000005462 80.409592000000003509 79.595634000000003994 79.576897000000002436 78.743178999999997814 78.543189999999995621 78.442345000000003097 79.376198000000002253 80.283942999999993617 80.70569600000000321 80.701508000000004017
68.019997000000003595 68.019997000000003595 68.019997000000003595 68.019997000000003595 68.019997000000003595 68.019997000000003595 69.784744000000003439 78.307715999999999212 82.368965000000002874 85.783484999999998877 97.859504999999998631 102.66509200000000135 113.04330400000000623 117.35458400000000267 118.24797100000000682 118.84688599999999781 118.02104199999999423 115.01799800000000573 113.68831600000000037 113.420897999999994 113.983429000000001 114.81842000000000326 116.17992399999999975 115.88705400000000623 115.63703900000000147 114.80956299999999715 114.23625900000000399 112.84432999999999936 112.30670200000000136 111.90492999999999313 109.2329560000000015 110.43562300000000675 111.30629700000000071 107.95577199999999607 102.66735099999999647 100.51138299999999504 99.43103800000000092 96.460402999999999452 96.015572000000005914 97.894424000000000774 94.027641000000002691 89.368622000000002004 85.466369999999997731 85.220612000000002695 85.3195570000000032 83.600571000000002186 83.636275999999995179 84.12795300000000509 84.163818000000006236 84.649994000000006622 83.313164000000000442 83.33406800000000203 82.892593000000005077 82.323380000000000223 82.181419000000005326 81.410774000000003525 82.430214000000006536 84.830414000000004648 85.412002999999998565 84.938141000000001668 82.869110000000006266 82.139037999999999329 80.567986000000004765 79.822899000000006708 79.719948000000002253 79.229202000000000794 77.891311999999999216 77.85772699999999702 78.061820999999994797 78.962967000000006124 79.169853000000003362 79.422996999999995182 79.478476999999998043 79.793677999999999884 80.228149000000001934 80.342376999999999043 79.562827999999996109 79.039467000000001917 78.487862000000006901 77.853736999999995305 77.929214000000001761 77.515556000000003678 78.297286999999997192 79.411743000000001302 79.840675000000004502 80.335753999999994335
68.019997000000003595 68.019997000000003595 68.019997000000003595 68.019997000000003595 68.019997000000003595 68.019997000000003595 68.019997000000003595 74.414779999999993265 78.67747500000000116 84.951469000000003007 88.812209999999993215 93.677306999999998993 109.32988699999999938 113.00994900000000598 115.83151999999999759 117.11786700000000394 117.64665999999999713 115.58348800000000267 114.11178599999999506 113.92832900000000507 114.640625 115.57870499999999936 116.3099899999999991 116.09590099999999779 115.85297400000000323 116.95561200000000213 119.88406399999999508 116.49062299999999937 116.2434690000000046 115.55831100000000333 115.52106499999999301 116.87164300000000594 112.91085800000000461 109.42850500000000125 102.37628200000000334 101.69543500000000336 100.78659100000000137 97.933791999999996847 96.849379999999996471 99.012694999999993684 95.375716999999994528 89.633621000000005097 86.746657999999996491 86.916861999999994737 87.441620000000000346 87.601257000000003927 87.426734999999993647 85.646179000000003612 85.592215999999993414 85.782439999999994029 85.856339000000005512 85.171135000000006698 84.037468000000004054 83.50060999999999467 83.49888599999999883 84.739058999999997468 87.722106999999994059 86.618988000000001648 86.810028000000002635 85.966217000000000326 85.151206999999999425 82.834648000000001389 81.249763000000001512 80.302704000000005635 79.949111999999999512 80.125754999999998063 78.642707999999998947 78.197265999999999053 79.141647000000006074 79.522636000000005652 79.735596000000001027 79.430710000000004811 79.414535999999998239 79.627799999999993474 79.655547999999996023 79.320053000000001475 78.083602999999996541 78.33103900000000408 77.802338000000005991 77.678298999999995544 77.527725000000003774 77.050330999999999904 77.282241999999996551 78.790908999999999196 79.012589000000005512 79.156906000000006429
68.019997000000003595 68.01899699999999882 68.01899699999999882 68.01899699999999882 68.01899699999999882 68.01899699999999882 68.01899699999999882 68.019997000000003595 71.506866000000002259 81.050918999999993275 85.03895599999999888 95.566085999999998535 101.64257800000000032 106.04106899999999314 112.69751700000000483 114.12148999999999432 116.4234390000000019 116.99026499999999373 116.49276000000000408 114.62308500000000322 115.42822300000000268 116.78436299999999903 116.83332799999999452 116.63704699999999548 116.13063800000000469 118.07666799999999796 122.96698800000000062 123.60395099999999502 123.51491500000000201 119.03534700000000157 118.17885599999999613 118.39047200000000259 116.50730900000000645 108.54045100000000446 103.66179700000000707 103.34635900000000674 102.08899700000000621 101.50015999999999394 100.03447699999999543 98.574966000000003419 96.615973999999994248 92.237769999999997594 91.52668799999999294 92.278969000000003575 89.965941999999998302 89.762259999999997717 88.85211200000000531 88.309569999999993684 87.183150999999995179 86.550422999999995 86.509940999999997757 85.607337999999998601 84.799210000000002196 84.262985000000000468 84.550323000000005891 86.360100000000002751 89.179832000000004655 88.997765000000001123 87.280144000000007054 86.319953999999995631 85.495682000000002176 83.374167999999997392 82.627387999999996282 81.214789999999993597 80.29626500000000533 80.574782999999996491 79.497687999999996578 79.44844799999999907 80.995345999999997844 80.1690980000000053 79.878653999999997382 79.529053000000004658 79.204871999999994614 79.100982999999999379 79.281807000000000585 78.154312000000004446 77.635773000000000366 77.663925000000006094 78.279662999999999329 77.833527000000003682 77.542502999999996405 77.35945100000000707 77.432441999999994664 78.196670999999994933 78.606116999999997574 78.954184999999995398
68.019997000000003595 68.01899699999999882 68.01899699999999882 68.01899699999999882 68.01899699999999882 68.01899699999999882 68.01899699999999882 68.019997000000003595 72.628867999999997096 76.331879000000000701 79.310715000000001851 90.882660000000001332 96.332458000000002585 104.88632200000000694 106.21087599999999895 107.35396599999999978 113.80277300000000196 116.21344000000000563 117.67901600000000428 117.95442199999999389 117.9075160000000011 117.33419000000000665 117.19090300000000582 116.56852700000000311 117.35131099999999549 120.61897299999999689 125.05664799999999559 125.80938000000000443 125.93035899999999572 124.43895700000000204 120.41468000000000416 119.23362699999999847 118.71847499999999798 110.50657699999999295 109.49344600000000582 106.30237599999999532 103.66477999999999327 103.89478300000000388 103.02519999999999811 101.9561080000000004 97.585273999999998296 94.633301000000003 94.479111000000003173 95.088866999999993368 94.181786000000002446 90.664940000000001419 89.394019999999997594 89.011054999999998927 87.752257999999997651 87.701103000000003362 87.898369000000002416 86.296172999999996023 85.337531999999995946 84.973770000000001801 86.311165000000002578 89.135093999999995162 89.63351400000000524 89.070151999999993109 87.421576999999999202 86.766982999999996196 85.304771000000002346 84.05730400000000202 83.462738000000001648 82.43585199999999702 82.06541400000000408 82.742050000000006094 81.257155999999994833 81.159369999999995571 81.846480999999997152 81.334602000000003841 80.90599799999999675 79.854095000000000937 78.970337000000000671 79.059021000000001322 79.259940999999997757 78.626343000000005645 77.704955999999995697 78.487617000000000189 78.753158999999996581 78.637810000000001764 78.277022999999999797 77.845733999999993102 78.127707999999998378 78.375534000000001811 78.565894999999997594 78.696708999999998468
68.019997000000003595 68.01899699999999882 68.01899699999999882 68.01899699999999882 68.01899699999999882 68.01899699999999882 68.01899699999999882 68.01899699999999882 70.093658000000004904 72.792961000000005356 79.006691000000003555 82.293541000000004715 86.073752999999996405 100.37842600000000459 103.07858299999999474 106.02195000000000391 106.14907800000000293 108.0123750000000058 118.26122999999999763 118.5218890000000016 117.77288799999999469 117.55645800000000634 117.45694699999999955 116.86776700000000062 117.97131299999999499 124.21623200000000509 126.58957700000000557 127.22300699999999551 127.02275799999999606 125.96785699999999508 121.08345799999999315 119.94393900000000031 116.48329200000000583 113.17697900000000288 111.76309200000000033 109.3024599999999964 109.01774600000000248 109.28187599999999691 106.50276200000000415 105.31124900000000366 100.66954800000000603 99.506446999999994318 100.71009100000000558 97.825408999999993398 95.75283799999999701 91.783653000000001043 90.512092999999993026 89.015251000000006343 88.43492899999999679 88.576012000000005742 89.003333999999995285 88.796509000000000356 87.375777999999996837 86.109748999999993657 86.969588999999999146 88.679992999999996073 88.47364000000000317 88.030158999999997604 87.503501999999997452 86.851905999999999608 85.544921999999999684 85.117973000000006323 85.003883000000001857 83.754767999999998551 83.611534000000006017 84.480170999999998571 84.988510000000005107 84.30611399999999378 82.532752999999999588 82.031623999999993657 82.078704999999999359 82.292518999999998641 81.03548399999999674 79.470543000000006373 79.792297000000004914 79.522957000000005223 79.052871999999993591 79.482094000000003575 79.146690000000006648 78.710280999999994833 78.611632999999997651 78.707618999999994003 79.081665000000000987 78.752937000000002854 79.03443099999999788 79.125632999999993444
69.744865000000004329 68.01899699999999882 68.01899699999999882 68.017998000000005732 68.017998000000005732 68.01899699999999882 68.01899699999999882 68.01899699999999882 68.019997000000003595 68.808250000000001023 75.759094000000004598 78.490996999999993022 85.583656000000004838 89.85956600000000094 93.945083999999994262 103.84985399999999345 104.19322999999999979 108.55678600000000245 113.52726699999999482 116.85433199999999943 117.32379899999999395 117.07047300000000689 117.39558399999999949 117.70474199999999598 118.89438599999999724 123.67211199999999849 126.05922700000000702 127.32022899999999765 127.23215500000000588 126.66217799999999727 121.41328400000000443 119.87485499999999661 115.5830919999999935 113.70967100000000016 112.64755200000000457 112.11281599999999514 112.01191699999999685 111.19194000000000244 110.84140800000000127 109.29597499999999854 103.77663400000000138 102.00813300000000083 102.50916300000000092 102.23913600000000201 95.577156000000002223 92.636688000000006582 91.171295000000000641 89.635688999999999282 89.937591999999995096 90.947128000000006409 90.003203999999996654 89.799858000000000402 88.437179999999997904 87.98834200000000294 87.933661999999998216 88.255759999999995102 88.235129999999998063 87.86397599999999386 87.307533000000006496 85.939850000000006958 85.670410000000003947 85.518737999999999033 85.835776999999993109 86.001136999999999944 86.179000999999999522 85.782523999999995112 86.236221000000000458 86.303321999999994318 85.391846000000001027 85.17867999999999995 83.693008000000006064 83.909653000000005818 82.02933500000000322 81.346892999999994345 81.285911999999996169 80.455849000000000615 80.22824099999999703 80.214232999999993012 80.044571000000004801 79.712333999999998468 78.995048999999994521 79.281234999999995239 79.463988999999997986 79.417541999999997415 79.679374999999993179 79.673682999999996923
73.562111000000001582 70.234939999999994598 68.01899699999999882 68.017998000000005732 68.017998000000005732 68.017998000000005732 68.017998000000005732 68.017998000000005732 68.017998000000005732 69.171158000000005472 71.145957999999993149 73.464218000000002462 81.965537999999995122 85.740493999999998209 93.356284999999999741 97.096039000000004648 100.45678700000000561 107.79989600000000394 112.29376200000000097 117.15895799999999838 116.47936199999999474 116.69805900000000065 117.96789599999999609 118.65171100000000592 120.19734200000000612 121.70349899999999366 124.65341899999999953 127.24839799999999457 127.22969799999999907 124.60701000000000249 121.82977300000000298 119.75848399999999572 114.78984800000000632 113.04151199999999733 112.19574699999999723 114.04891999999999541 116.14742300000000341 113.70915200000000311 113.36608900000000233 111.02616100000000188 108.35176099999999622 105.2835850000000022 104.11033600000000376 103.57939899999999511 96.207938999999996099 93.642669999999995412 91.563300999999995611 90.611389000000002625 91.166968999999994594 91.827231999999995082 91.819603000000000748 90.263626000000002136 88.827950000000001296 88.22495999999999583 88.087601000000006479 88.337310999999999694 88.328270000000003392 87.831726000000003296 87.435355999999998744 86.601387000000002558 86.700057999999998515 86.993110999999998967 86.459502999999997996 86.63337699999999586 86.459946000000002186 86.360611000000005788 86.812836000000004333 87.019913000000002512 86.783019999999993388 86.808937000000000239 87.068702999999999292 86.097137000000003582 83.014030000000005316 82.216285999999996648 81.918571000000000026 81.753555000000005748 82.082672000000002299 81.128532000000006974 81.007378000000002771 80.926331000000004678 80.894187999999999761 80.277457999999995764 79.665244999999998754 79.982590000000001851 80.293991000000005442 80.484397999999998774
76.610564999999994029 69.272239999999996485 68.01899699999999882 68.017998000000005732 68.017998000000005732 68.017998000000005732 68.017998000000005732 68.017998000000005732 68.017998000000005732 68.086348999999998455 69.588973999999993225 74.407996999999994614 77.333656000000004838 80.893416999999999462 90.609054999999997904 94.323340999999999212 101.72269400000000417 106.27868700000000501 111.01703600000000449 116.80597699999999861 116.46426400000000001 119.89530899999999747 121.06063799999999731 120.78418000000000632 120.28829199999999844 121.42454499999999484 126.46267699999999934 126.82309700000000419 126.94060500000000502 124.468718999999993 121.73837299999999573 116.81885499999999922 114.76316799999999319 113.55774700000000621 112.21637699999999427 113.57028999999999996 117.58885999999999683 117.82660699999999565 117.25740799999999808 112.16879299999999375 109.77259100000000558 106.51062799999999697 105.68517300000000603 100.91986799999999391 96.431786000000002446 94.289253000000002203 93.210785000000001332 94.457237000000006333 94.237114000000005376 92.58406800000000203 92.363922000000002299 90.809325999999998658 89.384108999999995149 88.219787999999994099 88.262778999999994767 88.621360999999993169 88.771805000000000518 88.5597230000000053 88.633979999999993993 87.720352000000005432 87.797004999999998631 87.824081000000006725 87.400940000000005625 86.179198999999997 86.372269000000002848 86.225516999999996415 86.33882099999999582 86.424025999999997794 86.93817099999999698 87.549949999999995498 88.309708000000000538 87.735625999999996338 86.106857000000005087 83.933516999999994823 82.665283000000002289 82.502998000000005163 82.990593000000004054 83.148560000000003356 83.350127999999997996 82.440299999999993474 82.509460000000004243 81.09771700000000294 80.629868000000001871 81.453156000000006998 81.017921000000001186 81.484375
78.193436000000005492 70.803191999999995687 68.01899699999999882 68.017998000000005732 68.017998000000005732 68.017998000000005732 68.017998000000005732 68.017998000000005732 68.017998000000005732 68.017998000000005732 68.01899699999999882 72.319991999999999166 75.388924000000002934 83.12821999999999889 87.126937999999995554 91.365425000000001887 100.76157399999999598 105.68785099999999488 114.74970999999999322 116.56058500000000322 117.23891399999999408 121.14974200000000337 122.68196100000000115 122.36627199999999505 122.77495600000000309 123.6759490000000028 126.10706299999999658 126.79473099999999874 126.16018699999999342 124.47323599999999999 122.05116300000000251 116.36291500000000099 115.06465099999999779 113.80619799999999486 113.98597700000000543 114.85687299999999311 116.97446399999999755 117.51226800000000594 116.38586399999999799 114.61627199999999505 112.85466800000000376 107.9815980000000053 106.80676300000000367 103.05761699999999337 100.59388699999999517 98.802788000000006718 96.116157999999998651 97.079384000000004562 95.688202000000003977 94.617103999999997654 93.136322000000006938 91.293930000000003133 89.792220999999997844 88.12440499999999588 88.079384000000004562 88.904456999999993627 89.096130000000002269 88.992393000000006964 89.494560000000006994 89.794921999999999684 89.771857999999994604 88.795586000000000126 88.033562000000003422 85.676040999999997894 85.426254000000000133 85.580703999999997222 85.67871900000000096 85.652489000000002761 86.937224999999997976 88.688934000000003266 90.990104999999999791 89.040779000000000565 87.572220000000001505 85.230773999999996704 84.318511999999998352 84.310783000000000698 83.728026999999997315 84.067351999999999634 84.70761099999999999 85.387825000000006526 84.982048000000006027 82.207390000000003738 81.618697999999994863 83.136229999999997631 83.760047999999997614 84.117774999999994634
79.934143000000005941 75.819121999999993022 69.781836999999995896 68.017998000000005732 68.017998000000005732 68.017998000000005732 68.017998000000005732 68.017998000000005732 68.017998000000005732 68.017998000000005732 68.279846000000006256 69.310623000000006755 71.01602900000000318 80.912803999999994176 85.701469000000003007 95.816947999999996455 101.20700100000000532 107.39353199999999333 116.10121900000000039 117.73007200000000694 120.65167200000000491 122.97386899999999343 124.06362199999999518 124.16930399999999679 124.49987799999999538 125.71422599999999647 126.36520400000000564 126.89070900000000108 126.30518299999999954 125.23320800000000474 119.93957500000000493 117.44648700000000474 116.79681399999999769 115.08604400000000112 115.69280200000000036 118.50107599999999763 119.30235299999999654 119.32969699999999591 117.16114799999999718 115.77272800000000075 112.14985699999999724 110.47238900000000683 109.34249099999999544 105.23019399999999735 103.90789800000000298 102.69519800000000487 102.30889100000000269 100.05188800000000526 97.203750999999996907 96.064162999999993531 94.13924400000000503 92.974189999999993006 89.555419999999998026 88.212158000000002289 87.924048999999996568 88.629088999999993348 89.395088000000001216 90.466483999999994126 90.313652000000004705 90.867949999999993338 90.771286000000003469 89.963440000000005625 87.844245999999998276 85.808632000000002904 85.268867000000000189 85.747803000000004658 85.763694999999998458 87.663300000000006662 87.880477999999996541 90.302383000000006064 91.996902000000005728 91.489234999999993647 89.024413999999993052 86.740921000000000163 85.744422999999997614 85.263717999999997232 85.631675999999998794 86.203117000000005987 85.914344999999997299 86.82666799999999796 86.805519000000003871 86.567336999999994873 86.6587600000000009 85.064682000000004791 85.284187000000002854 85.483101000000004888
79.330719000000001984 78.006873999999996272 73.533812999999994986 68.017998000000005732 68.017998000000005732 68.016998000000000957 68.016998000000000957 68.016998000000000957 68.016998000000000957 68.016998000000000957 68.017998000000005732 68.563186999999999216 71.782538999999999874 76.120804000000006795 82.058914000000001465 95.929878000000002203 102.45537600000000111 116.8571850000000012 122.10008999999999446 123.76193200000000161 122.03292100000000175 123.67103600000000085 124.89689599999999814 125.18648500000000467 125.45111099999999738 125.97786700000000337 126.46742199999999912 127.18303699999999878 127.01762399999999786 126.28778800000000615 121.79603600000000085 119.41771699999999612 119.97882099999999639 120.69518300000000011 121.49574300000000449 120.61100799999999822 120.96535500000000241 120.31871800000000405 119.640593999999993 118.56337000000000614 113.42717700000000036 111.87860899999999731 110.15562400000000309 109.23175799999999924 108.75189199999999801 105.90483899999999551 104.66870900000000688 101.26274899999999946 99.576958000000004745 96.891272999999998206 95.103454999999996744 93.764870000000001937 90.049751000000000545 88.411818999999994162 87.661834999999996398 88.34961699999999496 89.684021000000001322 91.210953000000003499 91.697540000000003602 91.819220999999998867 91.526443000000000438 90.567832999999993149 88.217094000000003007 87.717308000000002721 88.401329000000004044 87.402977000000007024 87.82787299999999675 90.132660000000001332 91.872353000000003931 94.407402000000004705 92.676452999999995086 92.023926000000003 89.824721999999994182 88.737785000000002356 86.857299999999995066 86.194923000000002844 86.424407999999999674 87.107201000000003432 87.985352000000006001 89.886146999999994023 88.516036999999997192 88.382178999999993607 88.213013000000003672 87.865256999999999721 87.209029999999998495 86.536643999999995458
79.029670999999993342 79.214461999999997488 72.42707099999999798 69.495215999999999212 68.017998000000005732 68.016998000000000957 68.016998000000000957 68.016998000000000957 68.016998000000000957 68.016998000000000957 68.016998000000000957 68.074950999999998658 69.772591000000005579 73.872292000000001622 86.769287000000005605 95.504554999999996312 105.36634800000000212 119.27693899999999871 124.01247399999999743 125.23722100000000523 125.109375 125.70584900000000061 125.33707400000000121 125.34494800000000225 126.07313499999999351 126.27201100000000622 126.46773500000000467 127.09491699999999526 126.94405399999999418 124.95790100000000677 122.36049699999999518 121.8931350000000009 123.06452199999999664 124.0804289999999952 125.43836199999999792 124.89410399999999868 123.55944800000000328 121.5349729999999937 121.13997700000000179 118.82540099999999939 117.1570430000000016 115.91110999999999365 111.97785199999999861 111.30475599999999758 109.89148699999999792 108.86445600000000411 106.84116400000000624 101.92640699999999754 99.932807999999994308 97.288673000000002844 96.162612999999993235 93.036429999999995744 90.596252000000006888 88.889022999999994568 88.21089200000000119 89.743224999999995362 92.675972000000001572 92.070305000000004725 92.272720000000006735 91.84005000000000507 91.71236399999999378 89.915749000000005253 88.346642000000002781 88.306770000000000209 89.353606999999996674 89.877869000000004007 90.882232999999999379 91.422202999999996109 92.541916000000000508 94.736678999999995199 93.63744400000000212 94.590286000000006084 91.189910999999995056 89.396377999999998565 87.623374999999995794 87.611176000000000386 88.270020000000002369 87.75362400000000207 88.539330000000006748 91.05214700000000505 91.98272699999999702 91.644165000000000987 89.410751000000004751 88.865013000000004695 87.5778580000000062 87.290351999999998611
79.030051999999997747 79.348586999999994873 76.235550000000003479 70.967719999999999914 68.017998000000005732 68.016998000000000957 68.016998000000000957 68.016998000000000957 68.016998000000000957 68.016998000000000957 68.016998000000000957 68.017998000000005732 68.11654699999999707 68.947243000000000279 84.386313999999998714 93.942809999999994375 112.75717199999999707 118.44473299999999938 121.24539900000000614 125.64538600000000201 125.97270199999999818 126.46742999999999313 125.83134499999999889 125.44709000000000287 126.13384200000000135 126.29255700000000218 126.34732099999999377 125.95056200000000501 125.8320850000000064 125.11280800000000113 122.37847100000000466 122.74393499999999335 125.16693899999999928 128.13311799999999607 128.82066299999999615 128.14190700000000334 124.15490699999999435 123.25804100000000574 122.83259599999999523 120.52139999999999986 118.93316699999999742 116.59172100000000682 115.61159499999999412 114.41604599999999436 110.67835999999999785 109.26735700000000406 104.67848999999999648 102.19415300000000002 100.22307600000000605 97.547646000000000299 96.437798000000000798 93.352881999999993923 92.578659000000001811 91.588058000000003744 89.76622000000000412 91.273621000000005665 93.631720999999998867 93.722571999999999548 92.993720999999993637 92.024635000000003515 91.601112000000000535 90.239922000000007074 89.345489999999998076 90.27787800000000118 90.12432900000000302 90.644356000000001927 90.956519999999997594 91.047424000000006572 93.101737999999997442 94.568000999999995315 93.520827999999994518 96.727767999999997528 96.747855999999998744 89.776084999999994807 88.290809999999993352 88.33305400000000418 89.041656000000003246 89.378448000000005891 91.817451000000005479 92.189903000000001043 93.492371000000005665 93.56888600000000622 92.608115999999995438 90.465896999999998229 88.25467700000000093 87.857101000000000113
