ncols        55
nrows        54
xllcorner    260998.598314848525
yllcorner    6248776.396865369752
cellsize     50.000000000000
 43.944572000000000855 40.85741000000000156 40.226027999999999452 40.555286000000002389 38.293697000000001651 37.845371000000000095 38.11410099999999801 40.108879000000001724 42.129432999999998799 44.517898999999999887 46.286265999999997689 47.895119000000001108 48.351821999999998525 48.80760999999999683 49.625552999999996473 49.538853000000003135 49.153458000000000538 48.735270999999997343 49.853732999999998299 50.557858000000003074 49.671528000000002123 48.369483999999999924 47.347625999999998214 46.372917000000001053 46.022274000000003014 46.162238999999999578 46.639042000000003441 47.279395999999998423 47.623286999999997704 47.996723000000002912 49.005020000000001801 49.597355000000000302 49.480849999999996669 49.884247000000002004 48.527092000000003225 46.906471000000003357 46.576618000000003406 47.4124219999999994 47.922955000000001746 48.579048000000000229 50.003475000000001671 50.356360999999999706 50.532940000000003522 50.575836000000002457 50.132587000000000899 49.666331999999997038 49.042670999999998571 47.802128000000003283 46.756481000000000847 46.003726999999997815 45.569946000000001618 45.929428000000001475 45.940638999999997338 45.485484999999997058 45.036262999999998158
 49.728287000000001683 45.396599000000001922 43.304194999999999993 41.839210999999998819 38.628498000000000445 38.036433999999999855 38.179862999999997442 38.930252000000002965 42.153610000000000468 44.715800999999999021 46.362118000000002382 47.937820000000002096 48.218105000000001326 48.537998000000001753 49.498558000000002721 48.451022999999999286 48.240501000000001852 50.396183000000000618 55.260632000000001085 54.654293000000002678 52.881732999999996991 48.343043999999999016 46.376697999999997535 45.441840999999996598 45.528289999999998372 46.248908999999997604 46.824989000000002193 47.531368000000000507 47.755020000000001801 48.030150999999996486 47.065162999999998306 47.74634900000000215 48.475166000000001532 49.01973000000000269 47.729145000000002597 46.72594800000000248 46.843372000000002231 47.606659000000000503 47.828597999999999502 48.437252000000000862 49.281939999999998747 50.104568000000000438 50.209823999999997568 50.272784999999998945 50.120586000000002969 49.358527999999999736 49.065413999999996975 47.747863999999999862 46.416840000000000543 45.959000000000003183 45.729182999999999026 46.160502999999998508 46.303524000000003014 46.031227000000001226 45.258442000000002281
 52.93021399999999943 48.370910999999999547 46.185809999999996478 43.699660999999998978 41.8030469999999994 40.440041000000000793 40.019813999999996668 40.260674000000001627 43.029052999999997553 45.075138000000002592 46.601722999999999786 47.990299000000000262 48.055034999999996614 47.694389000000001033 48.049908000000002062 48.128985999999997603 49.995434000000003039 55.283957999999998378 60.422801999999997236 57.983432999999998003 55.843544000000001404 49.438484000000002538 47.035426999999998543 45.916671999999998377 45.502425999999999817 46.535361999999999227 47.112541000000000224 47.51219199999999887 47.394325000000002035 46.671894000000001768 46.143982000000001165 46.379359999999998365 47.169231000000003462 47.838127000000000066 47.877831000000000472 46.730342999999997744 47.099933999999997525 47.424407999999999674 47.584904000000001645 47.963557999999999026 48.698768999999998641 49.610458000000001277 49.125262999999996794 49.274822000000000344 49.116717999999998767 48.845112000000000307 48.765807999999999822 48.483215000000001282 46.074215000000002362 45.971896999999998457 46.098385000000000389 46.364761000000001445 46.35543400000000247 46.181561000000002082 45.299103000000002339
 55.029747000000000412 53.66561500000000251 48.682251000000000829 48.002040999999998405 45.235992000000003088 41.412227999999998929 41.104652000000001522 41.561497000000002799 42.632603000000003135 45.521377999999998565 46.985152999999996837 48.265667000000000542 47.728332999999999231 47.339703000000000088 46.883572000000000912 48.67510599999999954 53.398856999999999573 59.874591999999999814 59.676749999999998408 58.105620999999999299 56.330218999999999596 53.969490000000000407 48.24157300000000248 46.590614000000002193 45.806319999999999482 47.021236000000001809 47.505375000000000796 47.838813999999999282 46.724193999999997118 45.874232999999996707 45.366089000000002329 45.03061699999999945 45.774864000000000885 45.262805999999997653 45.778210000000001401 46.160358000000002221 46.667766999999997779 47.01416799999999796 46.944316999999998075 47.229252000000002454 47.238399999999998613 47.888786000000003185 48.61048900000000117 48.809589000000002557 48.847591000000001316 48.272564000000002693 48.120037000000003502 46.619174999999998477 45.82339900000000199 46.126128999999998825 46.59178500000000156 46.715980999999999312 46.482475000000000875 46.335529000000001076 46.0036619999999985
 55.549618000000002382 54.803406000000002507 51.483905999999997505 49.381549999999997169 46.095855999999997721 43.580367999999999995 42.462215000000000487 43.051098000000003196 45.54769900000000149 47.254100999999998578 48.278872999999997262 48.723415000000002806 48.070602000000000942 47.439388000000001 46.208770999999998708 46.552394999999997083 56.785477000000000203 60.577911000000000286 60.146197999999998274 57.551113000000000852 56.153038000000002228 54.242564999999999031 49.242854999999998711 47.447234999999999161 46.184821999999996933 46.361561000000001798 47.291190999999997757 47.530064000000002977 47.13845799999999997 45.241154000000001645 44.707450999999998942 43.828777000000002317 44.081493000000001814 44.314155999999996993 44.459747000000000128 44.405810999999999922 44.966067999999999927 45.667042000000002133 44.248432000000001096 45.358505000000000962 46.415714000000001249 46.940818999999997629 48.145648999999998807 48.482238999999999862 48.511794999999999334 47.42847799999999836 46.902596000000002618 46.146591000000000804 45.575546000000002778 47.006554000000001281 47.474308000000000618 47.533107999999998583 46.927849000000001922 46.995925999999997202 46.252625000000001876
 54.872261000000001729 54.288898000000003208 53.373882000000001824 49.615313999999997918 46.687243999999999744 44.744483999999999924 45.568474000000001922 46.08641399999999777 47.035290000000003374 48.530411000000000854 49.151618999999996618 49.264828000000001396 48.994064000000001613 47.814342000000003452 46.345923999999996568 47.273513999999998703 55.465302000000001215 58.127563000000002091 58.24417100000000147 56.838374999999999204 55.371276999999999191 52.994979999999998199 51.286118000000001871 47.616900999999998589 46.237934000000002754 46.228167999999996596 46.72129799999999733 46.836441000000000656 45.762180000000000746 44.622523999999998523 44.212153999999998177 43.726413999999998339 43.563079999999999359 43.475974999999998261 43.203609000000000151 42.782856000000002439 41.658222000000002083 42.323936000000003332 42.989021000000001038 44.358626999999998475 45.421416999999998154 46.054336999999996749 47.785397000000003231 48.128830000000000666 48.333553000000001987 48.11345699999999681 46.909618000000001814 46.00207900000000194 45.393416999999999462 48.031342000000002201 48.921641999999998518 49.076805000000000234 48.454231000000000051 47.340297999999997103 46.365130999999998096
 54.628632000000003188 54.21981399999999951 53.3949089999999984 49.516120999999998276 47.882381000000002302 46.948565999999999576 46.486687000000003422 47.070908000000002858 48.204524999999996737 48.955750000000001876 49.782130999999999688 49.967522000000002436 49.572212000000000387 48.196097999999999217 46.918216999999998507 47.888717999999997232 53.456867000000002577 55.669952000000002101 56.508270000000003108 55.047263999999998418 53.071551999999996951 51.725749999999997897 50.439529000000000281 47.682419000000002995 46.357799999999997453 46.160232999999998071 45.944308999999996956 45.899783999999996809 45.563617999999998176 45.060035999999996648 44.070278000000001839 43.614367999999998915 43.375155999999996936 42.637324999999997033 41.999825000000001296 41.638278999999997154 41.904376999999996656 42.200477999999996825 42.50386400000000009 42.985644999999998106 44.54010799999999648 44.972931000000002655 46.017837999999997578 47.457897000000002663 47.913437000000001831 47.964908999999998684 46.862842999999998028 45.866836999999996749 45.278480999999999312 46.643684000000000367 49.159863000000001421 49.519382000000000232 49.416927000000001158 47.307327000000000794 46.428581000000001211
 54.44738399999999956 54.114390999999997689 52.917521999999998172 51.616337000000001467 48.293261999999998579 47.486046000000001754 47.012703000000001907 47.352459000000003186 48.883614000000001454 49.559769000000002848 50.0143589999999989 49.880401999999996576 49.482070999999997696 48.99437300000000306 47.742035000000001332 48.394782999999996775 50.171180999999997141 52.354846999999999468 53.368510999999998035 53.543784999999999741 51.652186999999997852 50.564517999999999631 49.74527400000000199 48.936965999999998189 47.298198999999996772 46.859234000000000719 46.469253999999999394 46.03685000000000116 45.626708999999998184 45.053592999999999336 43.9295540000000031 43.281067000000000178 43.165024000000002502 42.795563000000001352 42.203957000000002608 41.838012999999996566 41.977688000000000557 42.364643000000000939 42.393520000000002312 42.399338000000000193 43.580170000000002517 44.78482400000000041 45.814673999999996568 46.358364000000001681 46.798416000000003123 47.133380999999999972 46.303654000000001645 45.55501199999999784 45.349812000000000012 46.129559000000000424 48.810349000000002206 49.420836999999998795 49.275207999999999231 46.733832999999997071 46.267288000000000636
 54.413108999999998616 53.255992999999996584 52.659035000000002924 51.759495000000001141 48.74396899999999988 47.98523699999999792 47.192565999999999349 47.577765999999996893 49.203091000000000577 49.515804000000002816 49.708958000000002642 49.58945500000000095 49.213321999999998013 48.859352000000001226 49.58903500000000264 50.013111000000002093 50.866580999999996493 51.297916000000000736 51.66436000000000206 51.666080000000000894 51.019688000000002148 49.782532000000003336 49.211491000000002316 48.642147000000001356 47.710200999999997862 47.550694000000000017 47.185020000000001517 46.445984000000002823 45.868403999999998177 45.280880000000003349 44.348247999999998115 43.123553999999998609 43.241897999999999058 43.530799999999999272 42.898468000000001155 42.533301999999999055 42.948174000000001627 42.136276000000002284 41.787075000000001523 41.919688999999998202 43.423706000000002803 44.306725000000000136 45.165081000000000699 45.352268000000002246 44.638705999999999108 45.001167000000002361 45.672310000000003072 45.495002999999996973 45.46667099999999806 45.954155000000000086 47.905548000000003128 47.763992000000001781 47.90599799999999675 47.162528999999999257 46.02436800000000261
 53.980983999999999412 52.710720000000002017 52.434555000000003133 52.032725999999996702 50.579903000000001612 48.600394999999998902 47.459685999999997819 46.42096300000000042 49.109341000000000577 49.429951000000002637 49.591918999999997197 49.31352600000000308 48.794842000000002713 48.970390000000001862 50.422401000000000693 50.936928000000001759 51.471916000000000224 51.254795000000001437 50.042788999999999078 49.340172000000002583 49.349823000000000661 49.270266999999996926 49.096133999999999276 48.657814000000001897 48.095123000000000957 48.051025000000002763 47.767372000000001719 47.623116000000003112 46.418098000000000525 45.429892999999999859 44.288029000000001645 43.117305999999999244 43.408408999999998912 43.916519000000000972 44.121966999999997938 43.796230000000001326 43.190188999999996611 42.550601999999997815 41.433841999999998507 41.620967999999997744 42.507938000000002887 43.670368000000003406 43.186656999999996742 43.733494000000000312 44.219893999999996481 44.555942999999999188 45.44218800000000158 45.598647999999997182 45.533073000000001684 45.736423000000002048 45.941433000000003517 47.538696000000001618 47.662933000000002437 47.133186000000002025 45.714474000000002718
 52.777892999999998835 52.469456000000000984 52.208205999999997005 52.132407999999998083 51.098331000000001723 49.04967500000000058 47.860053999999998098 46.947108999999997536 48.896217000000000041 49.456184000000000367 49.494506999999998698 49.377772999999997694 48.744041000000002839 49.071536999999999296 49.860004000000003543 51.062080000000001689 51.40071100000000115 50.723843000000002235 49.876323999999996772 50.258372999999998854 50.398746000000002709 49.874648999999998011 48.754192000000003304 48.374541999999998154 48.132762999999997078 48.319049999999997169 48.113247000000001208 47.575485000000000468 46.517688999999997179 45.596713999999998634 44.333697999999998274 43.307651999999997372 43.753020999999996832 44.039279999999997983 44.149822000000000344 43.797057999999999822 43.160473000000003196 42.527907999999996491 41.546630999999997869 42.175227999999997053 42.64105599999999896 42.821930000000001826 42.673870000000000857 43.021152000000000726 43.65716199999999958 44.357388000000000261 45.159168000000001086 45.059401999999998623 45.263592000000002713 45.467055999999999472 45.71681199999999734 47.59094999999999942 47.806156000000001427 47.236201999999998691 46.781207999999999458
 49.921931999999998197 50.214863000000001136 51.254950999999998373 51.868747999999996523 51.116936000000002593 49.371406999999997822 48.325470000000002813 47.699084999999996626 47.90605899999999906 48.960686000000002593 49.411330999999997005 49.348590999999998985 48.74015399999999687 49.13700099999999793 49.932003000000001691 50.629379000000000133 50.812798000000000798 50.615482000000000085 50.553753000000000384 51.496108999999997025 51.51244400000000212 50.73905200000000093 48.12937199999999649 47.329109000000002538 47.311183999999997241 48.217564000000002977 47.969935999999997023 47.326183000000000334 46.820735999999996579 45.813152000000002317 44.786132999999999527 43.992989000000001454 43.838093000000000643 43.831398000000000081 43.854412000000003502 43.552993999999998209 43.010818000000000438 42.605659000000002834 42.662159000000002607 42.664200000000001012 42.727417000000002645 42.768180999999998448 42.583545999999998344 42.775497000000001435 43.210582999999999743 44.043303999999999121 44.652209999999996626 44.809421999999997865 44.935504999999999143 45.104168000000001371 45.423859000000000208 46.215702000000000282 48.890121000000000606 48.600524999999997533 47.630294999999996719
 37.989285000000002412 41.699832999999998151 48.931838999999996531 50.329555999999996629 49.881390000000003226 49.353530999999996709 46.764003999999999905 46.41050700000000262 45.869227999999999668 45.478713999999996531 46.527411999999998216 47.915267999999997528 48.7423209999999969 49.136986000000000274 49.636909000000002834 50.062325000000001296 50.670662000000000091 50.661361999999996897 50.916843000000000075 52.142592999999997971 52.321629000000001497 50.734546999999999173 48.273505999999997584 47.151291000000000508 47.082115000000001714 47.636023999999999035 47.767459999999999809 47.084293000000002394 46.624049999999996885 46.401862999999998749 45.165016000000001384 44.194813000000003456 43.96141399999999777 43.718707999999999458 43.661361999999996897 43.499896999999997149 42.801270000000002369 42.654696999999998752 42.852524000000002502 42.877372999999998626 42.623393999999997561 42.537201000000003148 42.613888000000002876 42.627063999999997179 42.674174999999998192 43.175209000000002391 44.555320999999999287 44.677692000000000405 44.686793999999999016 44.815460000000001628 45.353428000000000964 46.555553000000003294 49.112822999999998785 49.046832999999999458 48.278644999999997367
 29.841332999999998776 34.904086999999996976 39.438129000000003543 39.014988000000002444 42.50294099999999986 45.127181999999997686 44.516925999999997998 43.668357999999997787 42.922440000000001703 41.672038999999998055 43.657482000000001676 44.459784999999996558 46.954600999999996702 48.858302999999999372 48.811965999999998189 49.17153199999999913 49.694243999999997641 49.909992000000002577 48.989680999999997368 50.15281699999999887 52.354827999999997701 50.407317999999996516 49.220874999999999488 47.559719000000001188 47.109760000000001412 47.290657000000003052 47.100768999999999664 46.736507000000003131 46.717964000000002045 46.852074000000001774 45.697392000000000678 44.734459000000001083 44.271892999999998608 43.917983999999997025 43.674328000000002703 43.460926000000000613 42.755867000000002065 42.656360999999996864 42.899085999999996943 42.714497000000001492 41.812652999999997405 41.934348999999997432 42.490676999999998031 42.69289799999999957 42.646785999999998751 43.224494999999997447 44.691299000000000774 44.769553999999999405 44.97132100000000321 44.948788000000000409 45.589443000000002826 46.75500499999999704 48.190998000000000445 48.847233000000002789 48.167706000000002575
 29.841332999999998776 29.841332999999998776 29.841999000000001274 32.620922000000000196 34.908240999999996745 37.581744999999997958 43.043818999999999164 42.352848000000001605 41.348773999999998807 41.182178000000000395 42.618526000000002796 44.137813999999998771 46.304527000000000214 48.064503000000001975 47.369712999999997294 47.386004999999997267 45.29706600000000094 46.08626199999999784 47.235442999999996516 48.675651999999999475 52.725945000000002949 50.939307999999996923 49.527732999999997787 48.06569300000000311 47.245269999999997879 47.082363000000000852 46.972445999999997923 46.657378999999998825 46.909762999999998101 47.387928000000002271 46.532817999999998904 46.360377999999997201 45.284702000000002897 44.055115000000000691 43.797835999999996659 43.471096000000002846 43.092758000000003449 42.610252000000002681 42.707031000000000631 42.502960000000001628 41.436332999999997639 41.77267100000000255 42.559452000000000282 42.815505999999999176 42.734310000000000684 43.571570999999998719 45.216450000000001808 45.262549999999997397 45.248404999999998211 45.22103100000000353 45.946258999999997741 46.881911999999999807 47.960529000000001076 47.854576000000001557 47.334637000000000739
 29.841332999999998776 29.841332999999998776 29.841833000000001164 29.841999000000001274 29.842413000000000523 32.750484000000000151 31.190726999999998981 34.737431000000000836 37.174388999999997907 41.181426999999999339 42.802937000000000012 44.274059000000001163 46.046973999999998739 47.049411999999996681 43.658526999999999418 43.522204999999999586 43.436272000000002436 44.706032000000000437 45.596912000000003218 47.120193000000000438 52.176163000000002512 49.602187999999998169 49.040478000000000236 48.679336999999996749 47.345348000000001321 46.982365000000001487 46.763950000000001239 46.704357000000001676 47.509995000000003529 48.233116000000002543 48.075778999999997154 47.113827000000000567 45.862926000000001636 44.653061000000001002 43.981147999999997467 43.595748999999997864 43.519444000000000017 42.936962000000001183 42.745739000000000374 42.455334000000000572 41.401119000000001336 41.835655000000002701 42.753059000000000367 43.233291999999998723 42.988503000000001464 43.717930000000002622 44.713084999999999525 45.458995999999999071 45.507300999999998226 45.486556999999997686 46.43730899999999906 47.174739999999999895 47.691887000000001251 47.739235000000000753 47.191882999999997139
 29.841332999999998776 29.841833000000001164 29.841999000000001274 29.841999000000001274 29.842413000000000523 29.842413000000000523 29.842724000000000473 29.842724000000000473 33.069107000000002472 35.791912000000003502 41.911461000000002741 44.367466000000000292 43.767417999999999267 43.37736900000000162 42.72452899999999687 42.716510999999997011 42.451996000000001175 42.73542799999999886 45.030360999999999194 46.629513000000002876 48.291404999999997472 47.526004999999997835 47.683791999999996847 48.268349000000000615 47.494365999999999417 47.083710000000003504 47.105347000000001856 47.212539999999997065 47.865231000000001416 48.587665999999998689 48.732528999999999542 47.769894000000000744 46.473469000000001472 45.166252000000000066 44.756233000000001709 44.370232000000001449 44.120975000000001387 43.471496999999999389 43.065474999999999284 42.695774000000000115 42.275348999999998512 43.118136999999997272 43.296939999999999316 43.344634999999996694 43.189976000000001477 43.855797000000002583 44.738574999999997317 45.604008000000000322 46.075485000000000468 46.072890999999998485 46.145752000000001658 47.46962400000000315 47.916237000000002411 48.10817000000000121 47.444740000000003022
 33.332363000000000852 29.841833000000001164 32.169654999999998779 29.841999000000001274 29.842310000000001224 29.842413000000000523 29.842413000000000523 29.842413000000000523 29.843137999999999721 29.843343999999998317 32.025573999999998875 37.490101000000002784 42.215977000000002306 41.920349000000001638 42.651961999999997488 42.097808999999998036 42.282004999999998063 42.871116999999998143 44.361007999999998219 46.763286999999998272 47.529181999999998709 46.036915000000000475 46.402141999999997779 47.621037000000001171 48.016734999999997058 47.353709999999999525 47.184272999999997467 47.194298000000003412 48.130890000000000839 48.820937999999998169 49.069755999999998153 48.639828000000001396 47.575634000000000867 46.506207000000003404 45.837845000000001505 45.018416999999999462 44.88130999999999915 44.651862999999998749 43.510184999999999889 43.544800000000002171 43.669102000000002306 43.577826999999999202 43.474845999999999435 43.421748999999998375 43.43672600000000017 43.981281000000002734 44.199176999999998827 44.68946499999999844 46.058739000000002761 46.152214000000000738 46.320278000000001839 47.74662800000000118 48.27097299999999791 48.91463900000000109 48.289298999999999751
 49.891876000000003444 43.622768000000000654 38.006988999999997247 34.414715000000001055 29.842310000000001224 29.842413000000000523 29.842724000000000473 29.842724000000000473 29.843343999999998317 29.843343999999998317 29.843551999999998969 29.843551999999998969 35.504375000000003126 39.490723000000002685 36.53683900000000051 42.223160000000000025 43.525374999999996817 43.107776999999998679 44.237461000000003253 46.548782000000002768 47.049228999999996859 46.389037999999999329 45.258429999999997051 46.36617999999999995 47.611052999999998292 47.134582999999999231 47.111767000000000394 47.187710000000002708 48.254184999999999661 48.54113399999999956 48.874339999999996564 48.938316000000000372 47.66667900000000202 46.806975999999998805 46.268410000000002924 45.670788000000001716 45.928288000000002 45.657977999999999952 44.056083999999998468 43.824108000000002505 43.988590000000002078 43.987301000000002205 43.503590000000002647 43.468646999999997149 43.822811000000001513 43.708686999999997624 43.291877999999996973 43.465572000000001651 45.269641999999997495 45.675358000000002789 46.002968000000002746 46.956944000000000017 48.24654000000000309 48.975189000000000306 49.109225999999999601
 49.908405000000001905 49.324623000000002548 50.117362999999997442 40.898395999999998196 36.432094999999996787 38.380974000000001922 31.601867999999999626 29.842724000000000473 29.843137999999999721 29.843343999999998317 29.843343999999998317 29.843551999999998969 29.843551999999998969 29.844069000000001068 32.804595999999996536 36.028804999999998415 44.211472000000000548 43.427284000000000219 42.992972999999999217 45.728259999999998797 46.159885000000002719 45.908287000000001399 44.81403399999999948 45.845001000000003444 46.831696000000000879 46.516272999999998206 46.620089999999997588 46.239795999999998344 46.748043000000002678 47.88853499999999741 48.371788000000002228 48.496291999999996847 47.590507999999999811 46.958035000000002412 46.951214000000000226 46.498561999999999728 46.231262000000000967 45.845748999999997864 45.153393000000001223 43.985743999999996845 44.050091000000001884 43.979999999999996874 43.143734000000002027 43.604430999999998164 44.17501800000000145 42.957970000000003097 42.182685999999996795 42.132663999999998339 42.791556999999997402 42.567818000000002598 43.265160000000001617 44.488781000000003019 47.831614999999999327 49.003585999999998535 49.177318999999997118
 49.772418999999999301 49.2386589999999984 49.272593999999998005 49.476582000000000505 48.921939999999999316 47.116813999999997975 35.798305999999996629 32.721054000000002304 29.843137999999999721 29.843343999999998317 29.843551999999998969 29.843551999999998969 29.84396600000000177 29.84396600000000177 29.844069000000001068 32.568728999999997598 42.143742000000003145 37.280655000000002985 43.249907999999997799 44.735477000000003045 45.639164000000000954 45.54302200000000056 44.834583000000002073 44.856262000000000967 45.442295000000001437 44.39110600000000062 45.309722999999998194 45.575789999999997804 45.984222000000002595 47.07846800000000087 47.722084000000002391 47.914963000000000193 47.252949000000000979 47.232792000000003441 47.200687000000002058 47.084544999999998538 46.443576999999997668 45.939307999999996923 45.253452000000002897 44.181601999999998043 43.837757000000003416 43.484321999999998809 43.077179000000000997 43.756053999999998894 44.498787000000000091 43.820296999999996501 41.353737000000002411 41.359927999999996473 41.66021700000000294 41.985691000000002759 42.445132999999998447 43.792915000000000703 47.554194999999999993 48.87968800000000158 48.639023000000001673
 48.791263999999998191 48.885261999999997329 48.858561999999999159 49.185859999999998138 49.007609999999999673 47.009543999999998221 43.757525999999998589 36.358012999999999693 37.984744999999996651 35.998280000000001166 32.087521000000002402 29.843551999999998969 29.84396600000000177 29.844069000000001068 29.844172000000000367 29.844172000000000367 29.844481999999999289 32.952057000000003484 36.28334000000000259 42.681716999999999018 44.469504999999998063 44.66778200000000254 43.363731000000001359 41.545085999999997739 42.058776999999999191 43.50008799999999809 44.574683999999997752 44.781193000000001803 45.022587000000001467 45.740997000000000128 46.021641000000002464 46.356892000000001985 46.375140999999999281 47.081916999999997131 47.192413000000001944 47.163531999999996458 46.506588000000000704 45.942436000000000718 45.489474999999998772 44.972889000000002113 43.922843999999997777 43.524791999999997927 43.166012000000002047 43.952106000000000563 44.614646999999997945 42.961539999999999395 41.329376000000003444 41.326945999999999515 41.569465999999998473 41.976767999999999859 42.407237999999999545 43.753962999999998829 46.543517999999998835 47.680774999999997021 47.285381000000000995
 47.324305999999999983 48.244118000000000279 48.460129000000002009 48.701873999999996556 48.824013000000000773 47.386208000000003437 48.339599999999997237 39.412506000000000483 40.951183000000000334 43.370888000000000773 36.481476000000000681 33.20697799999999944 29.84396600000000177 32.162784999999999513 29.844172000000000367 29.844172000000000367 29.844172000000000367 29.844172000000000367 32.469101000000001989 35.491698999999997 39.891204999999999359 41.995029000000002384 42.854275000000001228 41.230933999999997752 41.596775000000000944 42.961922000000001276 43.595134999999999081 43.898642999999999859 43.255038999999996463 43.671748999999998375 44.502316000000000429 44.973953000000001623 45.385703999999996938 46.612724000000000046 46.946658999999996809 46.675491000000000952 46.4251560000000012 45.854336000000003537 45.751358000000003301 45.409008000000000038 44.161937999999999249 43.765545000000003029 43.951613999999999294 44.039906000000001995 44.025298999999996852 42.849445000000002892 41.690742000000000189 41.445568000000001518 41.632579999999997256 42.098041999999999518 44.181064999999996701 45.47153899999999993 47.448470999999997844 46.457855000000002121 45.797184000000001447
 38.732677000000002465 47.059592999999999563 47.662681999999996663 47.391162999999998817 47.926647000000002663 48.409821000000000879 49.128086000000003253 42.825302000000000646 44.991652999999999452 45.643619999999998527 44.773384000000000071 44.136020999999999503 43.337981999999996674 36.47009299999999854 29.844172000000000367 29.844172000000000367 29.844172000000000367 29.844172000000000367 29.844172000000000367 29.844481999999999289 31.384910999999998893 35.981540999999999997 41.477420999999999651 41.513100000000001444 41.388756000000000768 42.086829999999999075 42.306373999999998148 41.776725999999996475 41.829135999999998319 42.168888000000002592 42.626838999999996815 43.787475999999998066 44.515022000000001867 44.699305999999999983 45.98846799999999746 46.230789000000001465 45.927802999999997269 45.739201000000001329 45.840392999999998835 45.647815999999998837 44.504269000000000744 44.362591000000001884 44.365642999999998608 44.285133000000001857 43.778750999999999749 42.76605599999999896 41.951729000000000269 41.686920000000000641 42.30096799999999746 43.640239999999998588 45.502730999999997152 46.785564000000000817 48.107624000000001274 47.204287999999998249 44.687354999999996608
 33.930621999999999616 36.348601999999999634 40.192016999999999882 46.214764000000002397 46.928019999999996514 47.786301000000001693 48.010662000000003502 46.785290000000003374 48.975177999999999656 49.154659000000002322 47.099834000000001311 44.976765000000000327 44.920273000000001673 43.717201000000002864 32.116638000000001796 29.844172000000000367 29.844481999999999289 29.844481999999999289 29.844481999999999289 29.844481999999999289 29.844481999999999289 32.168788999999996747 34.835307999999997719 34.191952000000000567 40.197414000000001977 41.386119999999998242 41.642322999999997535 41.257972999999999786 40.993453999999999837 41.121799000000002877 41.62582400000000149 42.97768400000000355 43.610435000000002503 44.150032000000003052 45.32343699999999842 45.557034000000001583 45.170273000000001673 44.977715000000003442 44.973002999999998508 44.993855000000003486 44.613247000000001208 44.559455999999997289 44.773826999999997156 44.588633999999998991 43.651581000000000188 43.358787999999996998 42.998539000000000954 42.583427000000000362 42.993400999999998646 44.54928199999999805 45.997340999999998701 47.92684200000000061 48.513638000000000261 46.964134000000001379 43.814568000000001291
 29.845666999999998836 29.845666999999998836 34.788730999999998517 39.40856899999999996 45.764408000000003085 46.041496000000002198 44.127643999999996538 45.352249000000000478 48.367404999999997983 47.904423000000001309 46.708424000000000831 45.996009999999998286 45.546058999999999628 44.191437000000000523 42.594447999999999865 29.844481999999999289 29.844481999999999289 29.844481999999999289 29.844481999999999289 29.846001000000001113 29.846001000000001113 29.844481999999999289 29.844481999999999289 31.339817000000000036 33.172466000000000008 40.904769999999999186 41.075409000000000503 40.993304999999999438 41.216853999999997882 41.299339000000003352 41.834045000000003256 43.160243999999998721 43.393962999999999397 43.640270000000001005 44.076194999999998458 44.851551000000000613 43.708973000000000297 43.538756999999996822 44.118149000000002502 44.148155000000002701 44.033599999999999852 44.725346000000001823 45.227035999999998239 45.862484000000002027 45.563491999999996551 44.346012000000001763 44.076126000000002136 43.690620000000002676 43.700992999999996869 45.369937999999997658 47.401783000000001778 49.302661999999997988 49.361953999999997222 47.582714000000002841 45.833137999999998158
 29.845666999999998836 29.847332000000001528 29.86000100000000046 34.402248000000000161 33.281719000000002495 39.051506000000003382 43.742752000000002965 44.692512999999998158 46.160549000000003161 47.251590999999997678 46.561858999999998332 45.911872999999999934 46.369370000000003529 45.341327999999997189 43.248618999999997925 29.844481999999999289 29.844481999999999289 29.844481999999999289 29.844481999999999289 29.846001000000001113 29.846001000000001113 29.846001000000001113 29.846001000000001113 29.846491000000000327 29.846491000000000327 35.309635000000000105 34.999392999999997755 40.326312999999998965 41.258735999999998967 41.380543000000002962 41.898029000000001076 42.633532999999999902 42.968544000000001404 43.084502999999997996 43.024600999999996986 43.77289999999999992 43.291004000000000929 43.024872000000002004 43.184955999999999676 43.441173999999996624 43.624729000000002088 44.134109000000002254 45.937950000000000728 46.498660999999998467 46.662394999999996514 45.376854000000001577 44.856772999999996898 44.292839000000000738 44.456982000000003552 45.726646000000002346 47.322273000000002696 48.659111000000002889 49.603695000000001869 48.266117000000001269 46.603419999999999845
 29.845666999999998836 29.847332000000001528 29.858999000000000734 29.86000100000000046 29.86000100000000046 29.86017400000000066 37.980415000000000703 43.317314000000003205 44.294711999999996976 44.882930999999999244 45.858722999999997683 45.925327000000002897 46.185467000000002713 45.766700999999997634 43.314877000000002738 37.19203600000000165 29.844481999999999289 29.844481999999999289 29.844481999999999289 29.846001000000001113 29.846001000000001113 29.846001000000001113 29.846122999999998626 29.846491000000000327 29.846613000000001392 29.846613000000001392 31.68066999999999922 33.692340999999998985 36.285144999999999982 41.163970999999996536 41.730175000000002683 41.603222000000002367 41.957233000000002221 42.362461000000003253 42.813881000000002075 43.35017400000000265 42.796523999999998011 42.518379000000003032 42.713599999999999568 43.524441000000003044 43.762745000000002449 44.253075000000002603 45.876849999999997465 46.636493999999999005 47.256672000000001788 46.959366000000002828 45.485011999999997556 44.920028999999999542 44.49446100000000115 45.378779999999999006 46.833832000000001017 48.403346999999996569 49.602069999999997663 48.724091000000001372 45.319186999999999443
 37.663840999999997905 34.669781000000000404 32.326762999999999693 29.86017400000000066 29.86017400000000066 29.860434999999998951 33.596958000000000766 32.475169999999998538 34.869762000000001478 37.851771999999996865 44.776119000000001336 45.733722999999997683 46.072453000000002987 45.928879000000002009 45.066540000000003374 41.886764999999996917 29.861000000000000654 29.861000000000000654 29.844481999999999289 30.123252999999998281 30.319987999999998607 29.861000000000000654 31.666554999999998898 29.846491000000000327 29.846613000000001392 29.846856999999999971 29.847225000000001671 29.847225000000001671 32.617213999999997043 35.004497999999998115 39.611462000000003059 40.805126000000001341 41.228096000000000743 41.661121000000001402 42.343155000000002985 42.735618999999999801 42.203479999999998995 42.309238000000000568 43.24979799999999841 44.008003000000002203 44.121788000000002228 44.409072999999999354 44.932971999999999468 46.666007999999997935 47.569321000000002186 47.355904000000002441 45.525908999999998628 45.152400999999997566 44.864491000000001009 44.883235999999996579 46.156345000000001733 47.192394000000000176 48.364615999999998053 48.649920999999999083 44.253211999999997772
 45.42018900000000059 44.602142000000000621 37.053848000000002116 29.86017400000000066 29.86017400000000066 29.860434999999998951 29.860551999999998429 29.860783000000001408 29.860783000000001408 33.489226999999999634 43.388987999999997669 44.91035500000000269 45.73551599999999695 46.74779500000000354 46.049739999999999895 44.426811000000000718 34.929371000000003278 29.861000000000000654 29.861000000000000654 29.861000000000000654 37.058422000000000196 41.875008000000001118 35.564087000000000671 29.846491000000000327 29.846613000000001392 29.846856999999999971 29.847103000000000605 29.847346999999999184 29.847346999999999184 29.847836999999998397 33.552826000000003148 35.907749000000002582 40.208199000000000467 40.461632000000001597 40.426422000000002299 40.980300999999997202 41.635013999999998191 42.827347000000003163 44.015228000000000463 44.188969000000000165 44.335594000000000392 44.421390999999999849 44.37987900000000252 46.420943999999998653 47.476463000000002523 47.251990999999996745 45.56375500000000045 45.40324799999999783 45.198345000000003324 44.99806199999999734 45.261501000000002648 46.657100999999997271 47.48881099999999833 47.545001999999996656 43.14459200000000294
 47.41695800000000105 45.773262000000002558 44.882697999999997762 44.892707999999998947 36.516899000000002218 33.316071000000000879 31.266404999999998893 29.860551999999998429 29.860783000000001408 29.861087999999998743 29.861302999999999486 34.269542999999998756 38.450305999999997653 45.720520000000000493 45.683284999999997922 45.014266999999996699 36.221294000000000324 29.861499999999999488 29.861499999999999488 29.861333999999999378 39.714100000000001955 43.213943000000000438 42.918742999999999199 37.196739000000000885 31.875205999999998596 33.117718000000003542 29.847103000000000605 29.847346999999999184 29.847591000000001316 29.847836999999998397 29.848082000000001557 32.36157999999999646 31.942194000000000642 34.34976999999999947 40.011687999999999477 40.64748000000000161 41.121322999999996739 43.514865999999997825 44.555840000000003442 44.698115999999998849 44.128303999999999974 43.822166000000002839 43.866805999999996857 44.960467999999998767 46.998198999999999614 46.832946999999997217 46.021481000000001416 45.836810999999997307 45.811419999999998254 45.36714200000000119 45.298633999999999844 46.127892000000002781 46.147838999999997611 43.881473999999997204 40.537407000000001744
 50.22023399999999782 48.032738000000001932 46.836764999999999759 45.784004000000003032 42.882438999999997975 39.392834000000000572 33.846744999999998527 31.348304999999999865 29.861043999999999699 29.861087999999998743 29.861087999999998743 29.861651999999999418 33.144508000000001857 36.143771999999998457 43.661827000000002386 40.865253000000002714 39.982604999999999507 29.861834000000001765 29.861834000000001765 29.861499999999999488 31.874340000000000117 44.264701999999999771 44.796810000000000684 46.2116929999999968 44.740958999999996593 37.766250999999996907 34.525588999999996531 29.847346999999999184 29.847591000000001316 29.847836999999998397 29.848082000000001557 29.84857200000000077 29.848815999999999349 31.446054000000000173 35.875084000000001083 40.720553999999999917 41.472355000000000302 44.029128999999997518 44.739952000000002386 44.825867000000002349 44.401817000000001201 43.277057999999996696 43.068092000000000041 44.444561000000000206 46.413348999999996636 45.844085999999997227 45.611069000000000528 45.990867999999998972 46.084538000000002 45.865036000000003469 45.585590000000003386 45.643332999999998378 42.71417600000000192 41.485568999999998141 40.417521999999998172
 50.617825000000003399 48.442028000000000532 47.60634600000000205 47.023952000000001306 46.90301900000000046 41.263531000000000404 39.083950000000001523 36.854720999999997844 31.828054000000001622 29.861087999999998743 29.861302999999999486 29.861302999999999486 29.861737999999999005 29.861869999999999692 29.861869999999999692 34.041541999999999746 34.405318999999998653 32.298355000000000814 29.861999999999998323 29.861834000000001765 29.861999999999998323 45.971367000000000758 46.780354000000002657 46.627377000000002738 46.002719999999996503 43.33410599999999846 43.114612999999998522 36.899456000000000699 35.283816999999999098 32.41994900000000257 29.848082000000001557 29.84857200000000077 29.84857200000000077 29.848938000000000415 32.583083999999999492 32.560074000000000183 36.091118000000001587 42.682079000000001656 44.695861999999998204 44.849457000000001017 44.20461999999999847 42.886538999999999078 42.797237000000002638 43.854011999999997329 45.392657999999997287 45.393261000000002525 45.293312000000000239 45.546210999999999558 46.226058999999999344 46.225914000000003057 46.188197999999999865 42.745379999999997267 40.78910799999999881 40.037731000000000847 40.297634000000002175
 50.450504000000002236 48.948742000000002861 47.292319999999996583 46.148440999999998269 46.336319000000003143 44.91884600000000205 41.188693999999998141 38.524428999999997814 34.872996999999998025 32.939709000000000572 31.332972999999999075 32.216948999999999614 29.861737999999999005 29.861869999999999692 29.861869999999999692 29.862332999999999572 31.576056999999998709 31.04481699999999833 29.862749000000000876 29.862749000000000876 29.862749000000000876 32.907004999999998063 47.306212999999999624 46.611854999999998483 45.869427000000001726 43.945225000000000648 44.885615999999998849 46.042304999999998927 45.687874000000000763 37.098067999999997824 33.263016000000000361 29.848326000000000136 29.848815999999999349 29.849184000000001049 29.849184000000001049 29.849184000000001049 32.89901400000000109 37.331684000000002754 44.538238999999997247 44.642727000000000714 43.597003999999998314 43.202945999999997184 43.521290000000000475 44.106918000000000291 44.882094999999999629 44.970230000000000814 44.823039999999998884 45.170600999999997782 45.72544099999999645 46.223166999999996563 45.947310999999999126 40.732334000000001595 38.858051000000003228 38.771141000000000076 39.084685999999997819
 49.485466000000002396 47.514842999999999051 45.893047000000002811 45.521183000000000618 45.877026000000000749 46.447552000000001726 43.802058999999999855 41.645718000000002235 40.461277000000002602 41.642150999999998362 40.852694999999997094 35.852581000000000699 31.690891000000000588 29.861869999999999692 29.861999999999998323 29.861999999999998323 29.862443999999999988 29.862443999999999988 29.862749000000000876 29.850999999999999091 29.850999999999999091 29.850999999999999091 39.391101999999996508 38.575851000000000113 44.655242999999998688 44.149310999999997307 45.240326000000003148 46.318767999999998608 46.654701000000002864 44.620972000000001856 38.008965000000003442 41.631458000000002073 33.181880999999997073 29.849427999999999628 29.849427999999999628 29.849427999999999628 29.849427999999999628 35.050601999999997815 41.907947999999997535 43.259216000000002111 43.033572999999996966 43.076183000000000334 44.249423999999997648 44.721164999999999168 45.169742999999996869 43.872677000000003034 43.596901000000002568 44.05373000000000161 44.658343999999999596 45.965080000000000382 45.252197000000002447 42.368515000000002146 37.789085000000000036 35.766120999999998276 37.558754000000000417
 48.452427000000000135 47.43481400000000292 46.603222000000002367 45.429927999999996757 45.874930999999996573 46.476951999999997156 46.734600000000000364 46.256466000000003191 45.212265000000002146 42.577266999999999086 41.531795999999999935 40.85932499999999834 40.191723000000003196 32.663128000000000384 33.396290000000000475 31.590527999999999054 29.862443999999999988 29.862443999999999988 29.862443999999999988 29.850999999999999091 29.850999999999999091 29.850999999999999091 29.850999999999999091 33.197361000000000786 35.835315999999998837 38.566668999999997425 45.368262999999998897 46.454956000000002803 46.725883000000003165 46.132922999999998126 45.328270000000003392 44.183224000000002718 37.253731000000001927 33.308520999999998935 29.849796000000001328 29.849796000000001328 29.849917999999998841 33.035235999999997603 39.031773000000001161 41.71316099999999949 42.082439000000000817 42.620651000000002284 44.430599000000000842 43.664394000000001483 43.694842999999998767 43.537083000000002642 42.786372999999997546 43.310558000000000334 44.024639000000000522 45.476044000000001688 44.489638999999996827 39.414425000000001376 35.962398999999997784 35.337901999999999703 37.167830999999999619
 48.242564999999999031 47.691764999999996633 47.185519999999996799 46.110259999999996694 47.702525999999998874 47.469138999999998418 47.001021999999998968 46.70886600000000044 45.608806999999998766 44.152118999999999005 41.900348999999998512 42.088371000000002198 41.719966999999996915 39.001491999999998939 37.883667000000002645 32.240147000000000332 31.522337000000000273 30.611623999999999057 29.862749000000000876 29.850999999999999091 29.850999999999999091 29.850999999999999091 29.850999999999999091 29.850999999999999091 29.850999999999999091 33.210307999999997719 33.514442000000002508 36.658172999999997899 40.159187000000002854 46.534492000000000189 45.480736000000000274 44.470824999999997829 44.069195000000000562 36.847003999999998314 33.319930999999996857 29.850162999999998448 29.850162999999998448 32.624557000000002915 38.285187000000000523 39.589599999999997237 40.833857999999999322 40.711039999999997008 41.417019000000003359 42.454796000000001754 42.463177000000001726 42.413863999999996679 41.8732260000000025 42.406700000000000728 42.084702000000000055 44.086520999999997628 41.771510999999996727 38.001990999999996745 36.542507000000000517 35.306229000000001861 37.394184000000002754
 48.340302000000001215 48.403041999999999234 50.357300000000002171 49.889884999999999593 48.634247000000002004 47.919787999999996941 47.47515099999999677 46.873576999999997383 45.535442000000003304 43.259819000000000244 42.575629999999996755 43.06926700000000352 43.020977000000002022 41.762177000000001215 38.406207999999999458 37.25988399999999956 36.442776000000002057 34.042777999999998428 32.51262299999999783 31.37113599999999991 29.850999999999999091 29.850999999999999091 29.850999999999999091 29.850999999999999091 29.850999999999999091 29.850999999999999091 29.850999999999999091 29.850999999999999091 34.669410999999996648 38.76881800000000311 45.411053000000002555 45.139198000000000377 45.095081000000000415 37.95741999999999905 32.745212999999999681 29.850284999999999513 29.850162999999998448 32.467773000000001105 38.279003000000002999 38.190207999999998378 39.954689000000001897 40.33192799999999778 40.859935999999997591 41.723534000000000788 41.684032000000001972 41.397789000000003057 40.358623999999998944 40.877887999999998669 41.546351999999998839 42.621749999999998693 40.022964000000001761 36.527073000000001457 36.012973999999999819 36.680636999999997272 38.073334000000002675
 50.46594999999999942 51.980347000000001856 52.412418000000002394 51.758495000000003472 49.56423600000000107 48.298968999999999596 47.672488999999998782 46.869796999999998377 45.114390999999997689 43.149929000000000201 42.773662999999999101 43.958159999999999457 44.195056999999998482 43.42876799999999804 41.85454599999999914 40.67352300000000298 39.718665999999998917 36.37271899999999647 35.249611000000001582 33.538921000000001982 32.471381999999998413 30.863668000000000546 31.579273000000000593 29.850999999999999091 29.850999999999999091 29.850999999999999091 29.850999999999999091 29.850999999999999091 29.850999999999999091 29.850999999999999091 33.387099999999996669 36.174388999999997907 38.74725000000000108 43.654479999999999507 29.850408999999999082 29.850408999999999082 29.850408999999999082 32.026367000000000473 37.865020999999998708 37.796238000000002444 39.446837999999999624 40.10354600000000147 40.691647000000003231 41.150688000000002376 40.541873999999999967 40.610728999999999189 40.639912000000002479 41.147002999999997996 41.654693999999999221 42.66255999999999915 37.95481099999999941 36.083590999999998417 35.211216000000000292 36.163963000000002523 39.464336000000002969
 52.048507999999998219 53.252021999999996638 53.6329459999999969 53.142142999999997244 50.600467999999999336 49.4856410000000011 48.040989000000003273 47.60074600000000089 45.068161000000003469 43.6292839999999984 43.603099999999997749 44.876399999999996737 45.884723999999998512 45.525413999999997827 43.582478000000001828 42.61157999999999646 41.250095000000001733 39.373924000000002366 36.697254000000000929 35.681206000000003087 36.736687000000003422 37.116486000000001866 34.440773000000000081 32.73369199999999779 29.850999999999999091 29.850999999999999091 29.850999999999999091 29.850999999999999091 29.850999999999999091 29.850999999999999091 29.850999999999999091 29.850999999999999091 33.206592999999998028 34.240543000000002394 29.850774999999998727 29.850774999999998727 29.850653000000001214 29.850774999999998727 34.628647000000000844 38.018574000000000979 38.251475999999996702 39.487141000000001156 38.586387999999999465 39.680168000000001882 40.775444000000000244 41.28621700000000061 41.911396000000003426 42.211917999999997164 42.376525999999998362 44.601063000000003456 42.970202999999997928 35.794662000000002422 35.179543000000002451 36.658347999999996603 41.033306000000003166
 53.714596000000000231 54.263550000000002171 54.361359000000000208 54.26093699999999842 53.672840000000000771 51.017207999999996559 49.682667000000002133 48.748100000000000875 46.315964000000001022 45.337082000000002324 47.311508000000003449 47.205463000000001728 46.30651900000000154 45.943516000000002464 45.316090000000002647 44.239398999999998807 42.760742000000000473 43.239333999999999492 40.882092000000000098 40.03147899999999737 38.895786000000001081 38.63864900000000091 38.811264000000001317 38.212203999999999837 34.075065999999999633 32.466102999999996825 30.820842999999999989 29.850999999999999091 29.850999999999999091 29.850999999999999091 29.850999999999999091 29.850999999999999091 29.850999999999999091 29.850999999999999091 29.850999999999999091 29.851020999999999361 29.851020999999999361 29.851020999999999361 33.75689299999999804 39.849682000000001381 39.218772999999998774 37.576293999999997197 37.744304999999997108 39.5961459999999974 40.809672999999996534 42.445869000000001847 43.315013999999997907 44.620800000000002683 44.93364700000000056 45.302562999999999249 42.677433000000000618 35.116199000000001718 35.147869000000000028 37.680675999999998282 44.41779300000000319
 56.354979999999997631 56.291370000000000573 55.264575999999998146 54.281742000000001269 53.554577000000001874 52.890022000000001867 52.326694000000003371 51.23308200000000312 51.762298999999998728 49.200546000000002778 48.479804999999998927 48.341236000000002093 46.816634999999998001 46.083289999999998088 45.470314000000001897 45.027683000000003233 44.992534999999996614 44.460406999999996458 43.702407999999998367 41.877780999999998812 41.195076000000000249 40.986629000000000644 40.172752000000002681 42.124893000000000143 40.703311999999996829 34.175776999999996519 32.352134999999996978 31.106255000000000877 29.850999999999999091 29.850999999999999091 29.850999999999999091 29.850999999999999091 29.850999999999999091 29.850999999999999091 29.850284999999999513 29.851143000000000427 29.851143000000000427 29.851265000000001493 34.800190000000000623 40.676951999999999998 40.686095999999999151 39.910774000000003525 39.166733000000000686 40.243640999999996666 41.582363000000000852 44.002437999999997942 44.777748000000002548 45.332821000000002698 45.605761999999998579 45.300556000000000267 42.562781999999998561 37.58812300000000306 37.672854999999998427 42.871524999999998329 44.45278199999999913
 57.136909000000002834 56.644196000000000879 54.746524999999998329 53.888725000000000875 53.599013999999996827 53.745227999999997337 53.233738000000002444 52.359707000000000221 52.158394000000001256 50.334063999999997918 49.365439999999999543 49.052211999999997261 47.208691000000001736 45.926811000000000718 44.7714160000000021 44.398716000000000292 44.763396999999997661 44.357635000000001924 43.798374000000002582 42.966743000000001018 44.135029000000002952 45.28872700000000151 44.932476000000001193 43.953265999999999281 42.112309000000003323 39.143562000000002854 34.438834999999997422 32.794598000000000582 33.030833999999998696 30.713197999999998444 30.252096000000001652 29.850999999999999091 29.850999999999999091 29.850999999999999091 29.850284999999999513 29.851509000000000071 29.851509000000000071 29.850999999999999091 29.851509000000000071 41.365088999999997554 40.971904999999999575 40.799331999999999709 41.210262000000000171 41.552768999999997845 42.093544000000001404 44.200820999999997696 45.037247000000000696 45.74574299999999738 46.241984999999999673 45.252968000000002746 39.202708999999998696 34.989510000000002776 38.996890999999997973 44.530127999999997712 45.223736000000002377
 57.920752999999997712 56.852333000000001562 55.660998999999996784 53.881324999999996805 54.363940999999996961 54.731437999999997146 53.6762730000000019 52.740226999999997304 51.941707999999998435 51.061050000000001603 49.747391000000000361 50.299706000000000472 49.381039000000001238 46.200386000000001729 44.8737339999999989 44.184921000000002778 44.42827599999999677 44.093341999999999814 43.354084000000000287 43.757969000000002779 44.781609000000003107 46.238064000000001386 46.829932999999996923 45.462868000000000279 43.471218000000000359 40.739058999999997468 35.074511999999998579 34.040672000000000708 33.183951999999997895 32.01291299999999751 31.162064000000000874 30.48788499999999857 29.850999999999999091 29.850999999999999091 29.850999999999999091 29.851509000000000071 29.851509000000000071 29.851509000000000071 29.851509000000000071 35.685946999999998752 40.439258999999999844 40.814067999999998904 40.781863999999998782 41.176574999999999704 41.929523000000003208 43.199050999999997202 45.159652999999998713 46.123592000000002145 46.692841000000001372 41.390427000000002522 37.456516000000000588 34.95783999999999736 36.851588999999997043 45.546737999999997726 45.616360000000000241
 58.21189499999999839 57.366134999999999877 56.421162000000002479 54.961089999999998668 55.404094999999998095 55.386654000000000053 55.076649000000003298 53.381377999999997996 52.155791999999998154 52.073402000000001522 51.298000000000001819 50.530827000000002158 49.373485999999999763 46.601700000000001012 45.304217999999998767 44.425120999999997196 44.074223000000003481 43.170726999999999407 42.870899000000001422 43.113323000000001173 44.979560999999996795 46.358719000000000676 46.918697000000001651 45.9331019999999981 43.700710000000000832 40.411678000000001987 35.279156000000000404 34.134124999999997385 33.205742000000000758 32.70118699999999734 32.975540000000002294 33.054282999999998083 31.480046999999999002 29.850999999999999091 29.850999999999999091 29.851509000000000071 29.851509000000000071 29.851509000000000071 29.851509000000000071 29.851509000000000071 34.922328999999997734 40.465392999999998835 40.787750000000002615 41.248359999999998138 42.023586000000001661 43.400664999999996496 45.085979000000001804 46.018664999999998599 45.797294999999998311 44.420918000000000347 34.894497000000001208 34.926166999999999518 37.972026999999997088 44.531990000000000407 45.843254000000001724
 58.147137000000000739 57.694716999999997142 57.369391999999997722 56.799796999999998093 56.432105999999997437 56.493957999999999231 57.224274000000001195 56.741683999999999344 54.93312800000000351 53.638759999999997774 52.367972999999999217 50.870975000000001387 49.386310999999999183 48.175010999999997807 46.049399999999998556 44.853867000000001042 43.912768999999997277 42.424621999999999389 42.139122000000000412 42.597076000000001272 44.959567999999997312 45.691822000000001935 46.775272000000001071 46.353763999999998191 42.830798999999998955 39.822834000000000287 37.147719999999999629 34.683410999999999547 35.170333999999996877 34.449649999999998329 33.918773999999999091 33.308501999999997167 32.923309000000003266 31.435579000000000605 29.850999999999999091 29.851509000000000071 29.851509000000000071 29.851509000000000071 29.851998999999999285 29.851998999999999285 32.27376199999999784 35.405495000000001937 40.063460999999996659 41.205253999999996495 42.30404699999999707 43.281075000000001296 44.092776999999998111 45.271408000000000982 44.206017000000002781 43.00596999999999781 34.862822999999998785 37.240574000000002286 39.873325000000001239 42.53953899999999777 43.65210700000000088
 58.831299000000001342 58.198600999999996475 58.356644000000002848 58.200848000000000582 58.945132999999998447 58.634438000000002944 58.449280000000001678 58.542473000000001093 57.761890000000001066 56.476261000000000934 54.756889000000001033 51.58744000000000085 51.071510000000003515 49.551997999999997546 46.263202999999997189 44.827506999999997106 43.797398000000001161 41.809738000000002955 41.410851000000000965 41.151462999999999681 41.98374199999999945 44.590117999999996812 45.626331000000000415 45.261349000000002718 41.882511000000000934 39.202022999999996955 38.242409000000002095 38.204292000000002361 37.99377799999999894 37.380020000000001801 36.060417000000001053 33.740752999999997996 33.258530000000000371 32.915382000000001028 30.81758299999999906 29.85300099999999901 29.851998999999999285 29.85300099999999901 29.851998999999999285 29.851998999999999285 29.851998999999999285 29.851998999999999285 33.523972000000000548 38.78019700000000114 41.29807999999999879 42.783566000000000429 43.843842000000002201 43.834217000000002429 41.880234000000001515 38.071944999999999482 34.799480000000002633 38.263267999999996505 40.315086000000000865 40.259154999999999802 40.42670400000000086
 59.269604000000001065 59.357151000000001773 60.479298000000000002 60.352879000000001497 60.312919999999998311 60.143715000000000259 59.799247999999998626 59.704945000000002153 60.061095999999999151 59.701385000000001924 57.424354999999998483 54.11068000000000211 52.234844000000002495 50.382430999999996857 48.414546999999998889 45.088805999999998164 43.793343000000000131 43.076290000000000191 41.316062999999999761 40.962105000000001098 41.011271999999998172 43.01136799999999738 43.819457999999997355 43.498280000000001166 40.094031999999998561 38.674950000000002603 38.726863999999999066 39.228312999999999988 39.531700000000000728 38.723418999999999812 37.369728000000002055 35.242783000000002858 34.11240399999999795 33.354163999999997259 31.790528999999999371 31.041077000000001362 29.851998999999999285 29.851998999999999285 29.851998999999999285 29.851998999999999285 29.851998999999999285 29.851998999999999285 31.552409999999998291 34.309333999999999776 39.488705000000003054 41.543331000000002007 41.331535000000002356 41.063380999999999688 38.786803999999996506 36.441589000000000453 34.767806999999997686 40.521816000000001168 40.611668000000001655 40.186706999999998402 40.835143999999999664
 61.822132000000003416 62.295914000000003341 61.852488999999998498 61.533332999999998947 61.665633999999997172 61.3606410000000011 60.833602999999996541 61.268611999999997408 61.296180999999997141 60.151096000000002562 58.453158999999999423 56.874381999999997106 53.143065999999997473 50.751944999999999197 49.473900000000000432 46.079940999999998041 44.771186999999997624 43.822414000000001977 42.161312000000002342 41.035747999999998115 40.335864999999998304 40.219695999999999003 39.505893999999997845 39.118416000000003407 38.815539999999998599 38.908957999999998378 39.220531000000001143 39.694130000000001246 39.081028000000003431 37.596663999999996975 36.945929999999997051 36.470810000000000173 34.642071000000001391 33.759006999999996879 33.229995999999999867 32.345531000000001143 31.882511000000000934 30.840858000000000771 29.851998999999999285 29.851998999999999285 29.851998999999999285 29.851998999999999285 29.851998999999999285 31.7509440000000005 31.627776999999998253 37.678955000000001974 39.159011999999997045 38.720298999999997136 36.89427599999999785 34.704464000000001533 34.736136999999999375 40.097298000000002105 40.308750000000003411 40.753292000000001849 41.589905000000001678
 63.643047000000002811 64.143867000000000189 63.839638000000000773 63.180095999999998924 63.119227999999999668 64.483817999999999415 62.747306999999999277 61.911929999999998131 61.636780000000001678 60.460850000000000648 59.069645000000001289 57.329543999999998505 54.198227000000002818 52.183841999999998507 50.295738000000000056 47.100639000000001033 45.55038499999999857 44.926304000000001793 44.30407300000000248 42.088462999999997294 41.936813000000000784 40.354694000000002063 39.400447999999997251 38.928471000000001823 38.786937999999999249 39.465885000000000105 39.717112999999997669 40.162185999999998387 39.672668000000001598 37.258265999999998996 36.624412999999996998 36.481476000000000681 35.254165999999997894 34.483001999999999043 34.580097000000002083 33.234878999999999394 32.696193999999998425 31.521128000000000924 30.584738000000001534 29.851998999999999285 29.851998999999999285 29.851998999999999285 29.853999999999999204 29.853999999999999204 29.853999999999999204 35.602890000000002146 36.725181999999996663 36.455359999999998877 36.066665999999997894 34.42419399999999996 36.577750999999999237 39.372661999999998272 40.773335000000002992 41.345905000000001905 42.180675999999998282
 65.344436999999999216 65.679007999999996059 65.616684000000006449 66.906363999999996395 66.562279000000003748 65.890427000000002522 63.867336000000001661 62.624442999999999415 62.017532000000002768 60.677776000000001488 59.317024000000003525 57.78130000000000166 56.445686000000002025 53.149188999999999794 51.470180999999996629 49.628295999999998855 46.767764999999997144 47.71451600000000326 47.163119999999999266 45.09466199999999958 43.578814999999998747 41.975658000000002801 41.038204000000000349 39.510826000000001557 39.125934999999998354 39.764423000000000741 40.621245999999999299 40.199824999999997033 39.623939999999997497 36.923225000000002183 36.50400499999999937 36.475772999999996671 36.415913000000003308 35.803607999999996991 34.908088999999996815 34.908088999999996815 33.201926999999997747 32.782668999999998505 31.34617799999999832 29.851998999999999285 29.853999999999999204 29.853999999999999204 29.853999999999999204 29.853999999999999204 29.853999999999999204 30.861533999999998912 34.226005999999998153 34.016326999999996872 34.016326999999996872 35.756306000000002143 37.470024000000002218 40.621414000000001465 41.522239999999996485 41.851180999999996857 42.844768999999999437
 67.547409000000001811 67.576217999999997232 67.747574000000000183 67.732849000000001638 67.50138099999999497 66.875136999999995169 64.686378000000004818 63.338543000000001371 62.700470000000002813 61.741168999999999301 59.628033000000002062 58.193713999999999942 56.865169999999999106 53.924286000000002161 52.615841000000003191 52.280354000000002657 50.188698000000002253 49.178085000000002935 48.48181499999999744 47.793869000000000824 44.827835000000000321 43.184181000000002371 41.466377000000001374 39.583396999999997945 39.266598000000001889 40.29147700000000043 40.949264999999996917 40.211109000000000435 39.508690000000001419 38.339027000000001522 36.48323400000000305 36.530304000000000997 36.63464400000000154 36.098739999999999384 36.1094890000000035 35.430366999999996835 33.397159999999999513 33.037616999999997347 32.764235999999996807 30.706474000000000046 29.853999999999999204 29.853999999999999204 29.853999999999999204 29.853999999999999204 29.853999999999999204 29.853999999999999204 31.401326999999998435 32.711063000000002887 33.945152000000000214 36.950653000000002635 38.585166999999998438 39.95674900000000207 41.291381999999998698 43.076168000000002678 43.329856999999996958
 68.383537000000004014 68.219748999999993089 68.214172000000004914 68.240639000000001602 67.815467999999995641 67.253746000000006688 66.195969000000005167 63.896515000000000839 62.879443999999999448 61.848075999999998942 60.127688999999996611 58.858429000000000997 57.594577999999998497 56.057406999999997765 54.877608999999999639 53.387920000000001153 51.954566999999997279 49.931331999999997606 49.361156000000001143 48.311646000000003198 47.748111999999999 45.511592999999997744 43.291744000000001336 40.988723999999997716 40.893298999999998955 41.629432999999998799 41.817042999999998187 40.429276000000001545 39.931415999999998689 38.141913999999999874 36.417034000000001015 36.565272999999997694 36.865828999999997961 36.205359999999998877 36.157425000000003479 36.6442869999999985 36.205069999999999197 33.185085000000000832 32.875877000000002681 32.77870200000000267 30.556965000000001709 29.853999999999999204 29.853999999999999204 29.853999999999999204 29.853999999999999204 29.853999999999999204 29.853999999999999204 31.497804999999999609 34.0894660000000016 35.069640999999997177 37.279896000000000811 39.808582000000001244 42.390670999999997548 43.884475999999999374 43.989811000000003105
 68.787909999999996558 68.858977999999993358 68.767898999999999887 69.393981999999994059 67.777382000000002904 66.756095999999999435 65.792618000000004486 63.915100000000002467 62.933276999999996804 61.995834000000002106 61.327950000000001296 60.806128999999998541 59.630932000000001381 58.237217000000001121 55.755772000000000332 54.296410000000001617 52.885406000000003246 50.727814000000002181 50.676903000000002919 50.219597000000000264 50.018486000000002889 47.570126000000001909 45.420399000000003298 43.78293599999999941 43.424297000000002811 42.969658000000002573 44.209521999999999764 42.102550999999998282 40.128166000000000224 37.644955000000003054 36.334277999999997633 36.599482999999999322 36.661723999999999535 36.349162999999997226 37.249614999999998588 37.922603999999999758 36.397742999999998403 33.266426000000002716 32.986747999999998626 32.971164999999999168 32.088084999999999525 30.930842999999999421 29.853999999999999204 29.853999999999999204 29.853999999999999204 29.853999999999999204 29.853999999999999204 30.691441000000001083 31.137420999999999793 33.123218999999998857 37.25680499999999995 40.391478999999996802 43.591763000000000261 44.466675000000002171 44.789996999999999616
